# .PCD v0.7 - Point Cloud Data file format
VERSION 0.7
FIELDS x y z
SIZE 4 4 4
TYPE F F F
COUNT 1 1 1
WIDTH 2407
HEIGHT 1
VIEWPOINT 0 0 0 1 0 0 0
POINTS 2407
DATA ascii
1.2445189 0 2.4250002
1.2529527 0 2.4190001
1.2378068 0 2.368
1.2527694 0 2.375
1.2635409 0 2.3740001
1.2721548 0 2.3690002
1.2807209 0 2.3640001
1.2914257 0 2.3630002
1.3004671 0 2.3590002
1.3100264 0 2.3560002
1.3195572 0 2.3530002
1.328494 0 2.3490002
1.338533 0 2.3470001
1.3474032 0 2.3430002
1.3562351 0 2.3390002
1.3626904 0 2.3310001
1.370838 0 2.3260002
1.3795319 0 2.322
1.3869901 0 2.3160002
1.3955983 0 2.312
1.4041685 0 2.3080001
1.4145401 0 2.3070002
1.4137797 0 2.2880001
1.4228013 0 2.2850001
1.4317942 0 2.2820001
1.4401264 0 2.2780001
1.4547901 0 2.2840002
1.4650187 0 2.283
1.4752381 0 2.2820001
1.4854479 0 2.2810001
1.4956481 0 2.2800002
1.5045173 0 2.2770002
1.5113615 0 2.2710001
1.5208294 0 2.2690001
1.5255533 0 2.26
1.5084387 0 2.2190001
1.5203688 0 2.2210002
1.5109497 0 2.1920002
1.517218 0 2.1860001
1.5255256 0 2.1830001
1.5394334 0 2.1880002
1.5470135 0 2.184
1.5538425 0 2.1790001
1.5599062 0 2.1730001
1.567358 0 2.1690001
1.5762262 0 2.1670001
1.5843436 0 2.164
1.593906 0 2.1630001
1.6042007 0 2.1630001
1.6152416 0 2.164
1.625541 0 2.164
1.6313047 0 2.158
1.6423364 0 2.1590002
1.6549083 0 2.1620002
1.6682791 0 2.1660001
1.6801379 0 2.1680002
1.6943549 0 2.1730001
1.7243094 0 2.1980002
1.7371383 0 2.2010002
1.8111345 0 2.2810001
1.9529887 0 2.4450002
2.0039983 0 2.4940002
2.0651736 0 2.5550001
2.0870907 0 2.5670002
2.1091218 0 2.5790002
2.1230414 0 2.5810001
2.1353254 0 2.5810001
2.1467774 0 2.5800002
2.157383 0 2.5780001
2.1688111 0 2.5770001
2.1827688 0 2.5790002
0 -0 0
0 -0 0
0 -0 0
0 -0 0
0 -0 0
0 -0 0
0 -0 0
0 -0 0
0 -0 0
0 -0 0
0 -0 0
0 -0 0
0 -0 0
0 -0 0
0 -0 0
0 -0 0
0 -0 0
0 -0 0
0 -0 0
0 -0 0
0 -0 0
0 -0 0
0 -0 0
0 -0 0
0 -0 0
0 -0 0
0 -0 0
0 -0 0
0 -0 0
0 -0 0
-0 -0 0
-0 -0 0
-0 -0 0
-0 -0 0
-0 -0 0
-0 -0 0
-0 -0 0
-0 -0 0
-0 -0 0
-0 -0 0
-0 -0 0
-0 -0 0
-0 -0 0
-0 -0 0
-0 -0 0
-0 -0 0
-2.8352757 0 2.9910002
-2.8219836 0 2.9920001
-0 -0 0
-0 -0 0
-0 -0 0
-0 -0 0
-0 -0 0
-0 -0 0
-2.9615955 0 3.2550001
-2.9451985 0 3.2540002
-2.9603231 0 3.2880001
-2.9796019 0 3.3270001
-2.9575315 0 3.3200002
-3.006413 0 3.3930001
-3.0105343 0 3.4160001
-3.03898 0 3.4670002
-3.0277097 0 3.473
-3.0111802 0 3.473
-2.9937885 0 3.4720001
-2.9712615 0 3.4650002
-2.9547701 0 3.4650002
-2.9382787 0 3.4650002
-2.9251602 0 3.4690001
-2.9136806 0 3.4750001
-2.8996427 0 3.4780002
-2.8855762 0 3.4810002
-2.8756025 0 3.4890001
-2.8606358 0 3.4910002
-2.8603139 0 3.5110002
-2.8460336 0 3.5140002
-2.8429964 0 3.5310001
-2.8309934 0 3.5370002
-2.8173418 0 3.5410001
-2.8004887 0 3.5410001
-2.785208 0 3.5430002
-2.7644386 0 3.5380001
-2.750706 0 3.5420001
-2.7353919 0 3.5440001
-2.749975 0 3.5850003
-2.7329125 0 3.5850003
-2.7279706 0 3.6010001
-2.7221243 0 3.6160002
-2.705662 0 3.6170001
-2.6966236 0 3.6280003
-2.6690171 0 3.6140001
-2.6518164 0 3.6140001
-2.657944 0 3.6460001
-2.6449368 0 3.6520002
-2.6469815 0 3.6790001
-2.6316156 0 3.6820002
-2.64675 0 3.7280002
-2.6304173 0 3.7300003
-2.6161668 0 3.7350001
-2.5983906 0 3.7350001
-2.5792325 0 3.7330003
-2.5621514 0 3.7340002
-2.5157609 0 3.6920002
-2.4968357 0 3.6900001
-2.457773 0 3.6580002
-2.4423647 0 3.6610003
-2.426265 0 3.6630001
-2.4101465 0 3.6650002
-2.4083717 0 3.6890001
-2.4232187 0 3.7390001
-2.4324434 0 3.7810001
-2.4419069 0 3.8240001
-2.4376507 0 3.8460002
-2.4476535 0 3.8910003
-2.4572279 0 3.9360001
-2.4384949 0 3.9360001
-2.4339015 0 3.9590001
-2.4296999 0 3.9830003
-2.4246638 0 4.006
-2.4200096 0 4.0300002
-2.4300203 0 4.079
-2.4106066 0 4.079
-2.4058485 0 4.1040001
-2.4008527 0 4.1290002
-2.381201 0 4.1290002
-2.3764198 0 4.1550002
-2.3708239 0 4.1800003
-2.3661151 0 4.2070003
-2.3460922 0 4.2070003
-2.3404448 0 4.2330003
-2.3350983 0 4.2600002
-2.3294945 0 4.2870002
-2.3236337 0 4.3140001
-2.3335323 0 4.3710003
-2.3127289 0 4.3710003
-2.306607 0 4.3990002
-2.3007386 0 4.428
-2.2796638 0 4.428
-2.258589 0 4.428
-2.2228606 0 4.3990002
-2.1879084 0 4.3710003
-2.1527271 0 4.342
-2.1320617 0 4.342
-2.0977807 0 4.3140001
-2.0772486 0 4.3140001
-2.0567164 0 4.3140001
-2.0361843 0 4.3140001
-2.0287349 0 4.342
-2.0214813 0 4.3710003
-2.013494 0 4.3990002
-2.005693 0 4.428
-1.9976162 0 4.4570003
-1.9897065 0 4.487
-1.9815116 0 4.5170002
-1.9600132 0 4.5170002
-1.9518191 0 4.5480003
-1.9433296 0 4.579
-1.9215361 0 4.579
-1.8997428 0 4.579
-1.8906634 0 4.6100001
-1.8687223 0 4.6100001
-1.8467815 0 4.6100001
-1.8375077 0 4.6420002
-1.8154144 0 4.6420002
-1.8056837 0 4.6740003
-1.7960299 0 4.7070003
-1.7860619 0 4.7400002
-1.7757798 0 4.7730002
-1.7784059 0 4.842
-1.7680495 0 4.8770003
-1.7577175 0 4.9130001
-1.7470428 0 4.9490004
-1.7363737 0 4.9860001
-1.7126433 0 4.9860001
-1.7014458 0 5.0230002
-1.6775393 0 5.0230002
-1.6536329 0 5.0230002
-1.6420555 0 5.0610003
-1.6179682 0 5.0610003
-1.5938809 0 5.0610003
-1.5697933 0 5.0610003
-1.545706 0 5.0610003
-1.5101938 0 5.0230002
-1.4753389 0 4.9860001
-1.4408365 0 4.9490004
-1.4172823 0 4.9490004
-0 -0 0
-0 -0 0
-0 -0 0
-0 -0 0
-0 -0 0
-0.69096035 0 2.6800001
-0.6766867 0 2.674
-0.65651101 0 2.6440001
-0.63929987 0 2.6250002
-0.62585121 0 2.6210001
-0.61290878 0 2.6190002
-0.6002146 0 2.618
-0.58797896 0 2.6190002
-0.57595354 0 2.6210001
-0.5645541 0 2.6260002
-0.55226606 0 2.6270001
-0.5409959 0 2.6330001
-0.52946788 0 2.638
-0.51828426 0 2.6450002
-0.51200485 0 2.6780002
-0.50037771 0 2.684
-0.4885118 0 2.6890001
-0.47659832 0 2.6940002
-0.46429288 0 2.697
-0.45179155 0 2.6990001
-0.43910852 0 2.7
-0.42546877 0 2.6950002
-0.41248906 0 2.6940002
-0.39966717 0 2.6940002
-0.38627091 0 2.6900001
-0.3726351 0 2.684
-0.35784969 0 2.6690001
-0.34462956 0 2.6650002
-0.3308247 0 2.6560001
-0.31758472 0 2.651
-0.3042773 0 2.6450002
-0.29091668 0 2.638
-0.27772826 0 2.6320002
-0.26449618 0 2.6250002
-0.25085068 0 2.6130002
-0.23795813 0 2.608
-0.22329703 0 2.582
-0.21068135 0 2.5780001
-0.19794981 0 2.572
-0 -0 0
-0 -0 0
-0 -0 0
-0 -0 0
-0 -0 0
-0 -0 0
-0 -0 0
-0 -0 0
-0.04610784 0 1.3510001
-0.039589766 0 1.348
-0.033124864 0 1.3460001
-0.026678994 0 1.3440001
-0.020252161 0 1.342
-0.0138547 0 1.3410001
-0.0074667567 0 1.34
-0.0010875198 0 1.3380001
0.00527268 0 1.3360001
0.011622547 0 1.335
0.017962897 0 1.3340001
0.024311952 0 1.3340001
0.030638024 0 1.3330001
0.036982317 0 1.3330001
0.043326613 0 1.3330001
0.049633645 0 1.332
0.055973183 0 1.332
0.062312718 0 1.332
0.06865225 0 1.332
0.074991785 0 1.332
0.081331328 0 1.332
0.087670863 0 1.332
0.094080977 0 1.3330001
0.10042528 0 1.3330001
0.10684967 0 1.3340001
0.11328357 0 1.335
0.11963739 0 1.335
0.12608558 0 1.3360001
0.13244416 0 1.3360001
0.13880274 0 1.3360001
0.1451613 0 1.3360001
0.15151988 0 1.3360001
0.15787846 0 1.3360001
0.16423702 0 1.3360001
0.1705956 0 1.3360001
0.17708662 0 1.337
0.18344995 0 1.337
0.18981329 0 1.337
0.19632336 0 1.3380001
0.20284294 0 1.3390001
0.20921579 0 1.3390001
0.21558866 0 1.3390001
0.22212724 0 1.34
0.22850487 0 1.34
0.23488247 0 1.34
0.2412601 0 1.34
0.24763769 0 1.34
0.2542049 0 1.3410001
0.26078159 0 1.342
0.2671687 0 1.342
0.27355582 0 1.342
0.27994296 0 1.342
0.28654346 0 1.3430001
0.29293534 0 1.3430001
0.29932725 0 1.3430001
0.30571911 0 1.3430001
0.31234342 0 1.3440001
0.31874007 0 1.3440001
0.32513672 0 1.3440001
0.33153337 0 1.3440001
0.33818141 0 1.345
0.34483907 0 1.3460001
0.35176712 0 1.348
0.35844851 0 1.3490001
0.36513945 0 1.35
0.37183988 0 1.3510001
0.37854987 0 1.3520001
0.38498458 0 1.3520001
0.39141929 0 1.3520001
0 -0 0
0 -0 0
0 -0 0
0 -0 0
0 -0 0
0 -0 0
0 -0 0
1.0594151 0 3.2340002
1.074807 0 3.2340002
1.0895247 0 3.2320001
1.1042235 0 3.2300003
1.1178632 0 3.2250001
1.1293472 0 3.2140002
1.1296859 0 3.1720002
1.1422564 0 3.1650002
1.1562229 0 3.1620002
1.1601596 0 3.1320002
1.1686879 0 3.1150002
1.1607171 0 3.0550001
1.1475587 0 2.983
1.1313783 0 2.9050002
1.1113017 0 2.8190002
1.0971889 0 2.7500002
1.0844381 0 2.6860001
1.078431 0 2.6400001
1.0744656 0 2.6000001
1.084332 0 2.5940001
1.0776531 0 2.549
1.0863645 0 2.5410001
1.0949999 0 2.5330002
1.1048702 0 2.5280001
1.1146928 0 2.523
1.1244681 0 2.5180001
1.1350982 0 2.5150001
1.1452438 0 2.5110002
1.1553514 0 2.5070002
1.1654207 0 2.503
1.1763928 0 2.5010002
1.1878209 0 2.5
1.1977998 0 2.4960001
1.2130718 0 2.503
1.2235165 0 2.5
1.2329443 0 2.4950001
1.24432 0 2.4940002
1.2380574 0 2.4580002
1.2497561 0 2.4580002
1.2429793 0 2.4220002
1.2327521 0 2.3800001
1.2362387 0 2.365
1.2432748 0 2.3570001
1.2560894 0 2.3600001
1.2651738 0 2.3560002
1.2796375 0 2.3620002
1.2903326 0 2.3610001
1.2999158 0 2.358
1.3094703 0 2.355
1.3195572 0 2.3530002
1.3290595 0 2.3500001
1.3379627 0 2.3460002
1.3474032 0 2.3430002
1.3562351 0 2.3390002
1.3632751 0 2.332
1.370838 0 2.3260002
1.3801261 0 2.3230002
1.3857923 0 2.3140001
1.3949946 0 2.3110001
1.4053854 0 2.3100002
1.4151531 0 2.3080001
1.4125438 0 2.286
1.4215559 0 2.283
1.4324216 0 2.283
1.4407586 0 2.279
1.4535161 0 2.2820001
1.464377 0 2.2820001
1.4745916 0 2.2810001
1.4854479 0 2.2810001
1.4956481 0 2.2800002
1.5045173 0 2.2770002
1.5126925 0 2.273
1.5221701 0 2.2710001
1.5221783 0 2.2550001
1.507079 0 2.217
1.5148925 0 2.2130001
1.5157748 0 2.1990001
1.517912 0 2.187
1.5262243 0 2.184
1.5338047 0 2.1800001
1.5491385 0 2.187
1.5538425 0 2.1790001
1.560624 0 2.174
1.5688031 0 2.171
1.5769538 0 2.1680002
1.5850757 0 2.1650002
1.5946429 0 2.164
1.5997508 0 2.1570001
1.6092703 0 2.1560001
1.6202828 0 2.1570001
1.6313047 0 2.158
1.6423364 0 2.1590002
1.6549083 0 2.1620002
1.6675088 0 2.1650002
1.6801379 0 2.1680002
1.6943549 0 2.1730001
1.7243094 0 2.1980002
1.7387166 0 2.2030001
1.8055764 0 2.2740002
1.8994712 0 2.378
2.0023911 0 2.4920001
2.0643654 0 2.5540001
2.0805862 0 2.559
2.107486 0 2.5770001
2.119751 0 2.5770001
2.1320162 0 2.5770001
2.1434491 0 2.5760002
2.1531987 0 2.5730002
2.1637616 0 2.5710001
2.174305 0 2.569
2.1916387 0 2.575
2.2030385 0 2.5740001
2.2152891 0 2.5740001
2.22754 0 2.5740001
2.2432714 0 2.5780001
2.2214191 0 2.539
2.2326236 0 2.5380001
2.2447031 0 2.5380001
0 -0 0
0 -0 0
0 -0 0
0 -0 0
0 -0 0
0 -0 0
0 -0 0
0 -0 0
0 -0 0
0 -0 0
0 -0 0
0 -0 0
0 -0 0
0 -0 0
0 -0 0
0 -0 0
0 -0 0
0 -0 0
0 -0 0
0 -0 0
0 -0 0
0 -0 0
-0 -0 0
-0 -0 0
-0 -0 0
-0 -0 0
-0 -0 0
-0 -0 0
-0 -0 0
-0 -0 0
-0 -0 0
-0 -0 0
-0 -0 0
-0 -0 0
-0 -0 0
-0 -0 0
-0 -0 0
-2.8209302 0 2.9610002
-0 -0 0
-0 -0 0
-0 -0 0
-0 -0 0
-0 -0 0
-0 -0 0
-0 -0 0
-2.9331861 0 3.2070003
-2.9188323 0 3.2080002
-2.9442935 0 3.2530003
-2.9207082 0 3.2440002
-2.938405 0 3.2810001
-2.9566407 0 3.3190002
-2.9816034 0 3.3650002
-3.003484 0 3.4080002
-3.0179427 0 3.4430001
-3.0277097 0 3.473
-3.0111802 0 3.473
-2.9937885 0 3.4720001
-2.9729764 0 3.4670002
-2.9573283 0 3.4680002
-2.9416704 0 3.4690001
-2.9285331 0 3.473
-2.9153576 0 3.4770002
-2.9013102 0 3.4800003
-2.8872342 0 3.4830003
-2.8788993 0 3.4930003
-2.8639133 0 3.4950001
-2.8619432 0 3.5130002
-2.8484633 0 3.5170002
-2.8357501 0 3.5220001
-2.8229895 0 3.5270002
-2.8173418 0 3.5410001
-2.8012795 0 3.5420001
-2.7844217 0 3.5420001
-2.7620945 0 3.5350001
-2.7483764 0 3.5390003
-2.7315328 0 3.5390003
-2.7039502 0 3.5250001
-2.7306254 0 3.5820003
-2.7082744 0 3.5750003
-2.6920123 0 3.5760002
-2.6779847 0 3.5800002
-2.6869607 0 3.6150002
-2.6682785 0 3.6130002
-2.6510828 0 3.6130002
-2.633158 0 3.6120002
-2.6471095 0 3.6550002
-2.6448228 0 3.6760001
-2.6309011 0 3.6810002
-2.6460402 0 3.7270002
-2.6297121 0 3.7290001
-2.6154664 0 3.7340002
-2.5983906 0 3.7350001
-2.5785413 0 3.7320001
-2.5340185 0 3.6930001
-2.5157609 0 3.6920002
-2.4717996 0 3.6530001
-2.4564292 0 3.6560001
-2.4163465 0 3.6220002
-2.4004326 0 3.6240001
-2.3930485 0 3.6390002
-2.4103303 0 3.6920002
-2.3830373 0 3.6770003
-2.4041367 0 3.7370002
-2.4010382 0 3.7600002
-2.4103968 0 3.8030002
-2.4055066 0 3.8240001
-2.4010415 0 3.8460002
-2.3963666 0 3.8680003
-2.392097 0 3.8910003
-2.3869984 0 3.9130001
-2.3822958 0 3.9360001
-2.3773742 0 3.9590001
-2.3728297 0 3.9830003
-2.3674653 0 4.006
-2.3624682 0 4.0300002
-2.3578246 0 4.0550003
-2.3523657 0 4.079
-2.3472507 0 4.1040001
-2.327718 0 4.1040001
-2.3222461 0 4.1290002
-2.3025944 0 4.1290002
-2.2973182 0 4.1550002
-2.2912467 0 4.1800003
-2.2860236 0 4.2070003
-2.294548 0 4.2600002
-2.2886875 0 4.2870002
-2.2825696 0 4.3140001
-2.2919254 0 4.3710003
-2.2711222 0 4.3710003
-2.2647338 0 4.3990002
-2.2437971 0 4.3990002
-2.2228606 0 4.3990002
-2.1879084 0 4.3710003
-2.1527271 0 4.342
-2.1320617 0 4.342
-2.0977807 0 4.3140001
-2.0772486 0 4.3140001
-2.0567164 0 4.3140001
-2.0361843 0 4.3140001
-2.0287349 0 4.342
-2.0214813 0 4.3710003
-2.013494 0 4.3990002
-2.0188289 0 4.4570003
-2.0110619 0 4.487
-2.0030098 0 4.5170002
-1.9951106 0 4.5480003
-1.9869161 0 4.579
-1.9784268 0 4.6100001
-1.9700668 0 4.6420002
-1.9479736 0 4.6420002
-1.9258804 0 4.6420002
-1.9037873 0 4.6420002
-1.881694 0 4.6420002
-1.8596009 0 4.6420002
-1.8501748 0 4.6740003
-1.840835 0 4.7070003
-1.8184325 0 4.7070003
-1.8086216 0 4.7400002
-1.7984965 0 4.7730002
-1.8014511 0 4.842
-1.7912611 0 4.8770003
-1.7811004 0 4.9130001
-1.7705972 0 4.9490004
-1.7470428 0 4.9490004
-1.7363737 0 4.9860001
-1.7253525 0 5.0230002
-1.7014458 0 5.0230002
-1.6775393 0 5.0230002
-1.6661431 0 5.0610003
-1.6420555 0 5.0610003
-1.6179682 0 5.0610003
-1.5938809 0 5.0610003
-1.5697933 0 5.0610003
-1.545706 0 5.0610003
-1.5216187 0 5.0610003
-1.4753389 0 4.9860001
-1.4408365 0 4.9490004
-1.4069726 0 4.9130001
-0 -0 0
-0 -0 0
-0 -0 0
-0 -0 0
-0 -0 0
-0.69173384 0 2.6830001
-0.67693979 0 2.6750002
-0.65651101 0 2.6440001
-0.63905627 0 2.6240001
-0.62585121 0 2.6210001
-0.61267471 0 2.618
-0.59975606 0 2.6160002
-0.58730543 0 2.6160002
-0.57529432 0 2.618
-0.56369418 0 2.6220002
-0.55184567 0 2.6250002
-0.54058492 0 2.631
-0.5290665 0 2.6360002
-0.5186761 0 2.6470001
-0.50741625 0 2.654
-0.49515769 0 2.6560001
-0.48869345 0 2.6900001
-0.47659832 0 2.6940002
-0.46429288 0 2.697
-0.45179155 0 2.6990001
-0.43943378 0 2.7020001
-0.4257845 0 2.697
-0.41310149 0 2.6980002
-0.40011221 0 2.697
-0.3867017 0 2.6930001
-0.37305161 0 2.687
-0.35811785 0 2.6710002
-0.34514681 0 2.6690001
-0.33182114 0 2.664
-0.31770453 0 2.6520002
-0.30439234 0 2.6460001
-0.29102698 0 2.6390002
-0.27793929 0 2.6340001
-0.26479843 0 2.628
-0.24998666 0 2.6040001
-0.23731944 0 2.6010001
-0.22347 0 2.5840001
-0.21068135 0 2.5780001
-0.19810376 0 2.5740001
-0.18505877 0 2.5630002
-0 -0 0
-0 -0 0
-0 -0 0
-0 -0 0
-0 -0 0
-0 -0 0
-0 -0 0
-0.046005454 0 1.348
-0.03953103 0 1.3460001
-0.033100251 0 1.345
-0.026659142 0 1.3430001
-0.020252161 0 1.342
-0.0138547 0 1.3410001
-0.0074611851 0 1.3390001
-0.0010875198 0 1.3380001
0.00527268 0 1.3360001
0.011631254 0 1.3360001
0.017976362 0 1.335
0.024311952 0 1.3340001
0.030661009 0 1.3340001
0.036982317 0 1.3330001
0.043326613 0 1.3330001
0.049670909 0 1.3330001
0.056015205 0 1.3330001
0.062359504 0 1.3330001
0.068703793 0 1.3330001
0.075048089 0 1.3330001
0.081392385 0 1.3330001
0.087736689 0 1.3330001
0.094080977 0 1.3330001
0.10050062 0 1.3340001
0.10692976 0 1.335
0.11328357 0 1.335
0.11963739 0 1.335
0.12608558 0 1.3360001
0.13244416 0 1.3360001
0.13880274 0 1.3360001
0.14526995 0 1.337
0.15163329 0 1.337
0.15799662 0 1.337
0.16435994 0 1.337
0.17072329 0 1.337
0.17708662 0 1.337
0.18358716 0 1.3380001
0.18995526 0 1.3380001
0.1964701 0 1.3390001
0.20299441 0 1.34
0.20937203 0 1.34
0.21574965 0 1.34
0.22229302 0 1.3410001
0.2286754 0 1.3410001
0.23505777 0 1.3410001
0.24144015 0 1.3410001
0.24782251 0 1.3410001
0.2542049 0 1.3410001
0.26078159 0 1.342
0.2671687 0 1.342
0.27355582 0 1.342
0.27994296 0 1.342
0.28654346 0 1.3430001
0.29293534 0 1.3430001
0.29932725 0 1.3430001
0.30571911 0 1.3430001
0.31234342 0 1.3440001
0.31874007 0 1.3440001
0.32513672 0 1.3440001
0.33153337 0 1.3440001
0.33818141 0 1.345
0.34483907 0 1.3460001
0.35176712 0 1.348
0.35844851 0 1.3490001
0.364869 0 1.3490001
0.37156463 0 1.35
0.37826988 0 1.3510001
0.38498458 0 1.3520001
0.39141929 0 1.3520001
0 -0 0
0 -0 0
0 -0 0
0 -0 0
0 -0 0
0 -0 0
0 -0 0
1.0587599 0 3.2320001
1.0741423 0 3.2320001
1.0888506 0 3.2300003
1.1035397 0 3.2280002
1.1175166 0 3.2240002
1.1170487 0 3.1790001
1.130042 0 3.1730001
1.1429781 0 3.1670001
1.1569543 0 3.164
1.1597891 0 3.131
1.1701887 0 3.1190002
1.1736351 0 3.0890002
1.1594844 0 3.0140002
1.1442304 0 2.9380002
1.1266761 0 2.858
1.0983858 0 2.753
1.0844381 0 2.6860001
1.078431 0 2.6400001
1.0740525 0 2.5990002
1.084332 0 2.5940001
1.0776531 0 2.549
1.0872196 0 2.5430002
1.0941353 0 2.5310001
1.103996 0 2.526
1.114251 0 2.5220001
1.1240215 0 2.5170002
1.1341956 0 2.513
1.1443316 0 2.5090001
1.1544296 0 2.5050001
1.164955 0 2.5020001
1.175452 0 2.4990001
1.1901966 0 2.5050001
1.2016391 0 2.5040002
1.2121027 0 2.5010002
1.2225378 0 2.4980001
1.2319558 0 2.493
1.2433221 0 2.4920001
1.2360426 0 2.4540002
1.2487391 0 2.4560001
1.2280964 0 2.3930001
1.2368958 0 2.388
1.235716 0 2.3640001
1.2438022 0 2.358
1.255025 0 2.358
1.2646368 0 2.355
1.2747616 0 2.3530002
1.2897861 0 2.3600001
1.2999158 0 2.358
1.3094703 0 2.355
1.3195572 0 2.3530002
1.3290595 0 2.3500001
1.3379627 0 2.3460002
1.3474032 0 2.3430002
1.3562351 0 2.3390002
1.362106 0 2.3300002
1.370838 0 2.3260002
1.3795319 0 2.322
1.3851935 0 2.3130002
1.3943911 0 2.3100002
1.4053854 0 2.3100002
1.4016638 0 2.286
1.4119259 0 2.2850001
1.4203106 0 2.2810001
1.4311668 0 2.2810001
1.4401264 0 2.2780001
1.4509684 0 2.2780001
1.4624519 0 2.279
1.4732987 0 2.279
1.4841454 0 2.279
1.4943361 0 2.2780001
1.5038565 0 2.276
1.512027 0 2.2720001
1.5214999 0 2.2700002
1.5188031 0 2.25
1.5063993 0 2.2160001
1.514208 0 2.2120001
1.5178428 0 2.2020001
1.5255468 0 2.1980002
1.5304173 0 2.1900001
1.5408404 0 2.1900001
1.545597 0 2.1820002
1.5531296 0 2.1780002
1.560624 0 2.174
1.5680805 0 2.1700001
1.5740441 0 2.164
1.5843436 0 2.164
1.5909585 0 2.1590002
1.6019758 0 2.1600001
1.6100167 0 2.1570001
1.6202828 0 2.1570001
1.6313047 0 2.158
1.6415756 0 2.158
1.6541427 0 2.161
1.6667385 0 2.164
1.6793628 0 2.1670001
1.6943549 0 2.1730001
1.714111 0 2.1850002
1.7363489 0 2.2
1.8071643 0 2.276
1.9322207 0 2.4190001
1.9927487 0 2.48
2.0635571 0 2.5530002
2.0797732 0 2.5580001
2.099308 0 2.5670002
2.1172833 0 2.5740001
2.1295342 0 2.5740001
2.1384566 0 2.5700002
2.1490145 0 2.5680001
2.1587119 0 2.5650001
2.1675341 0 2.5610001
2.1822765 0 2.5640001
2.1936238 0 2.5630002
0 -0 0
2.1946547 0 2.536
2.2058544 0 2.5350001
2.2196693 0 2.5370002
2.2299845 0 2.5350001
2.2420497 0 2.5350001
2.287015 0 2.572
0 -0 0
0 -0 0
0 -0 0
0 -0 0
0 -0 0
0 -0 0
0 -0 0
0 -0 0
0 -0 0
0 -0 0
0 -0 0
0 -0 0
0 -0 0
0 -0 0
0 -0 0
0 -0 0
0 -0 0
0 -0 0
0 -0 0
0 -0 0
0 -0 0
-0 -0 0
-0 -0 0
-0 -0 0
-0 -0 0
-0 -0 0
-0 -0 0
-0 -0 0
-0 -0 0
-0 -0 0
-0 -0 0
-2.8923697 0 2.9620001
-2.8802161 0 2.9640002
-2.8680429 0 2.9660001
-2.8558509 0 2.9680002
-2.8426826 0 2.9690001
-2.8304572 0 2.9710002
-0 -0 0
-0 -0 0
-0 -0 0
-0 -0 0
-0 -0 0
-0 -0 0
-0 -0 0
-2.9322712 0 3.2060001
-2.9188323 0 3.2080002
-2.8990383 0 3.2030001
-2.9225087 0 3.2460001
-2.9160154 0 3.256
-2.9566407 0 3.3190002
-2.9816034 0 3.3650002
-3.0052464 0 3.4100001
-3.0196958 0 3.4450002
-3.0556068 0 3.5050001
-3.0389252 0 3.5050001
-3.0248301 0 3.5080001
-3.0115643 0 3.5120001
-3.0067878 0 3.5260003
-2.990006 0 3.5260003
-2.9706948 0 3.5230002
-2.9522502 0 3.5210001
-2.9313238 0 3.5160003
-2.9121027 0 3.5130002
-2.8904378 0 3.5070002
-2.876205 0 3.5100002
-2.8619432 0 3.5130002
-2.8476534 0 3.5160003
-2.8341398 0 3.5200002
-2.830193 0 3.5360003
-2.8173418 0 3.5410001
-2.8012795 0 3.5420001
-2.7844217 0 3.5420001
-2.7644386 0 3.5380001
-2.7382808 0 3.5260003
-2.7307608 0 3.5380001
-2.7047174 0 3.5260003
-2.6978457 0 3.5390003
-2.7075167 0 3.5740001
-2.6912596 0 3.5750003
-2.6705043 0 3.5700002
-2.6549997 0 3.5720003
-2.6416917 0 3.5770001
-2.6503491 0 3.6120002
-2.6324289 0 3.6110001
-2.6463854 0 3.6540003
-2.6246774 0 3.6480002
-2.6323304 0 3.6830001
-2.6169314 0 3.6860001
-2.6297121 0 3.7290001
-2.6126647 0 3.7300003
-2.5976949 0 3.7340002
-2.5778503 0 3.7310002
-2.5340185 0 3.6930001
-2.4891858 0 3.6530001
-2.4717996 0 3.6530001
-2.4295535 0 3.6160002
-2.4150121 0 3.6200001
-2.3997703 0 3.6230001
-2.3904181 0 3.6350002
-2.3822577 0 3.6490002
-2.3804448 0 3.6730001
-2.3964167 0 3.7250001
-2.3825195 0 3.7310002
-2.3831427 0 3.7600002
-2.3784573 0 3.7810001
-2.3873069 0 3.8240001
-2.3691068 0 3.8240001
-2.3644319 0 3.8460002
-2.3461273 0 3.8460002
-2.3411384 0 3.8680003
-2.3365402 0 3.8910003
-2.3311276 0 3.9130001
-2.3260965 0 3.9360001
-2.3208466 0 3.9590001
-2.3159595 0 3.9830003
-2.2970026 0 3.9830003
-2.2912002 0 4.006
-2.2857466 0 4.0300002
-2.2665663 0 4.0300002
-2.2473857 0 4.0300002
-2.2420278 0 4.0550003
-2.2227287 0 4.0550003
-2.2300549 0 4.1040001
-2.2239878 0 4.1290002
-2.2182169 0 4.1550002
-2.2259552 0 4.2070003
-2.2195654 0 4.2330003
-2.2134478 0 4.2600002
-2.207073 0 4.2870002
-2.2004411 0 4.3140001
-2.1799092 0 4.3140001
-2.1593771 0 4.3140001
-2.1254587 0 4.2870002
-2.1183128 0 4.3140001
-2.0977807 0 4.3140001
-2.0772486 0 4.3140001
-2.0567164 0 4.3140001
-2.0494001 0 4.342
-2.0287349 0 4.342
-2.0344307 0 4.3990002
-2.0267677 0 4.428
-2.0188289 0 4.4570003
-2.024508 0 4.5170002
-2.0167563 0 4.5480003
-2.0087094 0 4.579
-2.0003676 0 4.6100001
-1.9784268 0 4.6100001
-1.9700668 0 4.6420002
-1.9479736 0 4.6420002
-1.9258804 0 4.6420002
-1.9169112 0 4.6740003
-1.8946656 0 4.6740003
-1.8724202 0 4.6740003
-1.8501748 0 4.6740003
-1.8537407 0 4.7400002
-1.8311812 0 4.7400002
-1.8212132 0 4.7730002
-1.824496 0 4.842
-1.8144728 0 4.8770003
-1.8044833 0 4.9130001
-1.7941514 0 4.9490004
-1.7705972 0 4.9490004
-1.7601041 0 4.9860001
-1.7363737 0 4.9860001
-1.7253525 0 5.0230002
-1.7014458 0 5.0230002
-1.6775393 0 5.0230002
-1.6661431 0 5.0610003
-1.6420555 0 5.0610003
-1.6179682 0 5.0610003
-1.5938809 0 5.0610003
-1.5697933 0 5.0610003
-1.5573119 0 5.0990005
-1.5216187 0 5.0610003
-1.4753389 0 4.9860001
-1.4516085 0 4.9860001
-0 -0 0
-0 -0 0
-0 -0 0
-0 -0 0
-0 -0 0
-0 -0 0
-0.69224948 0 2.6850002
-0.67693979 0 2.6750002
-0.6562627 0 2.6430001
-0.63881272 0 2.6230001
-0.62561244 0 2.6200001
-0.6122067 0 2.6160002
-0.59929752 0 2.6140001
-0.58685642 0 2.6140001
-0.57485485 0 2.6160002
-0.5630492 0 2.6190002
-0.55121493 0 2.6220002
-0.54079044 0 2.6320002
-0.52846438 0 2.6330001
-0.51906806 0 2.6490002
-0.50932813 0 2.664
-0.49720842 0 2.6670001
-0.4885118 0 2.6890001
-0.47642136 0 2.6930001
-0.46429288 0 2.697
-0.45179155 0 2.6990001
-0.43910852 0 2.7
-0.42641604 0 2.7010002
-0.41340771 0 2.7
-0.4002606 0 2.6980002
-0.38684532 0 2.6940002
-0.37332928 0 2.6890001
-0.36187199 0 2.6990001
-0.34514681 0 2.6690001
-0.33182114 0 2.664
-0.31842333 0 2.6580002
-0.30588785 0 2.6590002
-0.29268116 0 2.654
-0.27836135 0 2.638
-0.26499996 0 2.6300001
-0.2526747 0 2.6320002
-0.23731944 0 2.6010001
-0.22398891 0 2.5900002
-0.2107631 0 2.5790002
-0.19825768 0 2.5760002
-0.18462555 0 2.5570002
-0 -0 0
-0 -0 0
-0 -0 0
-0 -0 0
-0 -0 0
-0 -0 0
-0 -0 0
-0 -0 0
-0.03950166 0 1.345
-0.033075646 0 1.3440001
-0.026659142 0 1.3430001
-0.020252161 0 1.342
-0.013844368 0 1.34
-0.0074611851 0 1.3390001
-0.0010875198 0 1.3380001
0.00527268 0 1.3360001
0.011631254 0 1.3360001
0.017976362 0 1.335
0.024311952 0 1.3340001
0.030661009 0 1.3340001
0.037010062 0 1.3340001
0.043326613 0 1.3330001
0.049670909 0 1.3330001
0.056015205 0 1.3330001
0.062359504 0 1.3330001
0.068703793 0 1.3330001
0.075048089 0 1.3330001
0.081392385 0 1.3330001
0.087736689 0 1.3330001
0.094151556 0 1.3340001
0.10057595 0 1.335
0.10692976 0 1.335
0.11328357 0 1.335
0.11963739 0 1.335
0.12608558 0 1.3360001
0.13244416 0 1.3360001
0.13890663 0 1.337
0.14526995 0 1.337
0.15163329 0 1.337
0.15799662 0 1.337
0.16435994 0 1.337
0.17072329 0 1.337
0.17721908 0 1.3380001
0.18358716 0 1.3380001
0.19009724 0 1.3390001
0.19661681 0 1.34
0.20299441 0 1.34
0.20937203 0 1.34
0.21591066 0 1.3410001
0.22229302 0 1.3410001
0.2286754 0 1.3410001
0.23505777 0 1.3410001
0.24144015 0 1.3410001
0.24782251 0 1.3410001
0.25439444 0 1.342
0.26078159 0 1.342
0.2671687 0 1.342
0.27355582 0 1.342
0.27994296 0 1.342
0.28654346 0 1.3430001
0.29293534 0 1.3430001
0.29932725 0 1.3430001
0.30571911 0 1.3430001
0.31234342 0 1.3440001
0.31874007 0 1.3440001
0.32513672 0 1.3440001
0.33178002 0 1.345
0.33843288 0 1.3460001
0.34509528 0 1.3470001
0.35176712 0 1.348
0.35844851 0 1.3490001
0.364869 0 1.3490001
0.37156463 0 1.35
0.37826988 0 1.3510001
0.38498458 0 1.3520001
0.39141929 0 1.3520001
0 -0 0
0 -0 0
0 -0 0
0 -0 0
0 -0 0
0 -0 0
0 -0 0
1.0512254 0 3.2090001
1.066166 0 3.2080002
1.0810971 0 3.2070003
1.0960187 0 3.2060001
1.1102374 0 3.2030001
1.1170487 0 3.1790001
1.1339595 0 3.1840003
1.1437 0 3.1690001
1.1573199 0 3.1650002
1.1697905 0 3.1580002
1.1701887 0 3.1190002
1.1728752 0 3.0870001
1.1648701 0 3.0280001
1.1446198 0 2.9390001
1.1231282 0 2.8490002
1.1003807 0 2.7580001
1.0848417 0 2.687
1.0788395 0 2.641
1.0740525 0 2.5990002
1.0680294 0 2.5550001
1.0772303 0 2.5480001
1.086792 0 2.5420001
1.093703 0 2.5300002
1.103996 0 2.526
1.1138092 0 2.5210001
1.1235749 0 2.516
1.1332929 0 2.5110002
1.1434195 0 2.5070002
1.1539688 0 2.5040002
1.1654207 0 2.503
1.1763928 0 2.5010002
1.1897215 0 2.5040002
1.201159 0 2.503
1.2116179 0 2.5
1.2215588 0 2.4960001
1.2314616 0 2.4920001
1.2423242 0 2.49
1.2345316 0 2.4510002
1.2334858 0 2.4260001
1.2275832 0 2.3920002
1.2368958 0 2.388
1.2362387 0 2.365
1.2448572 0 2.3600001
1.2555573 0 2.3590002
1.2651738 0 2.3560002
1.2747616 0 2.3530002
1.2892396 0 2.3590002
1.3004671 0 2.3590002
1.3100264 0 2.3560002
1.3195572 0 2.3530002
1.3290595 0 2.3500001
1.3379627 0 2.3460002
1.346828 0 2.342
1.3556552 0 2.3380001
1.3615212 0 2.329
1.3696593 0 2.3240001
1.3789378 0 2.3210001
1.3851935 0 2.3130002
1.3937874 0 2.309
1.4053854 0 2.3100002
1.4016638 0 2.286
1.4069828 0 2.2770002
1.4165746 0 2.2750001
1.4211278 0 2.2650001
1.4369655 0 2.273
1.4484206 0 2.2740002
1.4605268 0 2.276
1.4713593 0 2.276
1.4821917 0 2.276
1.4923681 0 2.2750001
1.5018742 0 2.273
1.5100305 0 2.2690001
1.519489 0 2.2670002
1.5154281 0 2.2450001
1.507079 0 2.217
1.5135235 0 2.2110002
1.5171535 0 2.2010002
1.5248526 0 2.197
1.5318149 0 2.1920002
1.5380261 0 2.1860001
1.5463052 0 2.1830001
1.5459986 0 2.1680002
1.5591884 0 2.1720002
1.5651901 0 2.1660001
1.5740441 0 2.164
1.5814151 0 2.1600001
1.5894847 0 2.1570001
1.6012342 0 2.1590002
1.6092703 0 2.1560001
1.6202828 0 2.1570001
1.6267693 0 2.1520002
1.6408149 0 2.1570001
1.6533773 0 2.1600001
1.6659684 0 2.1630001
1.6785878 0 2.1660001
1.6951345 0 2.174
1.7109729 0 2.181
1.7402952 0 2.2050002
1.8079585 0 2.2770002
1.9202391 0 2.404
1.9999806 0 2.4890001
2.0627489 0 2.552
2.0789602 0 2.5570002
2.0960369 0 2.5630002
2.1090577 0 2.5640001
2.1212609 0 2.5640001
2.1351283 0 2.5660002
2.1448302 0 2.5630002
2.1545038 0 2.5600002
2.1641488 0 2.5570002
2.1695096 0 2.549
2.1833532 0 2.5510001
2.1946337 0 2.5500002
2.2050395 0 2.5480001
2.2058544 0 2.5350001
2.2266686 0 2.5450001
2.2370222 0 2.5430002
2.2482407 0 2.5420001
2.2523365 0 2.5330002
0 -0 0
0 -0 0
0 -0 0
0 -0 0
0 -0 0
0 -0 0
0 -0 0
0 -0 0
0 -0 0
0 -0 0
0 -0 0
0 -0 0
0 -0 0
0 -0 0
0 -0 0
0 -0 0
0 -0 0
0 -0 0
0 -0 0
0 -0 0
0 -0 0
-0 -0 0
-0 -0 0
-0 -0 0
-0 -0 0
-0 -0 0
-0 -0 0
-0 -0 0
-0 -0 0
-0 -0 0
-2.9113736 0 2.9670002
-2.8972523 0 2.9670002
-2.8821595 0 2.9660001
-2.8709438 0 2.9690001
-2.8587377 0 2.9710002
-2.8455548 0 2.9720001
-2.8333154 0 2.9740002
-2.8201087 0 2.9750001
-0 -0 0
-0 -0 0
-0 -0 0
-0 -0 0
-0 -0 0
-0 -0 0
-2.903918 0 3.1750002
-2.8951759 0 3.1820002
-2.903564 0 3.2080002
-2.9225087 0 3.2460001
-2.9401963 0 3.2830002
-2.9566407 0 3.3190002
-2.9780588 0 3.3610001
-3.0061278 0 3.4110003
-3.0293379 0 3.4560001
-3.0547352 0 3.5040002
-3.0796754 0 3.5520003
-3.0662189 0 3.5560002
-3.0655873 0 3.5750003
-3.0443084 0 3.5700002
-3.0264695 0 3.5690002
-3.0086398 0 3.5680001
-3.0000429 0 3.5780001
-2.9771776 0 3.5710001
-2.9286819 0 3.5330002
-2.920933 0 3.5440001
-2.8680105 0 3.5000002
-2.8627579 0 3.5140002
-2.8517029 0 3.5210001
-2.8623202 0 3.5550001
-2.8518035 0 3.5630002
-2.8237071 0 3.5490003
-2.8004887 0 3.5410001
-2.7828496 0 3.5400002
-2.7722521 0 3.5480001
-2.7475996 0 3.5380001
-2.7307608 0 3.5380001
-2.7047174 0 3.5260003
-2.6978457 0 3.5390003
-2.7067592 0 3.5730002
-2.6912596 0 3.5750003
-2.6682601 0 3.5670002
-2.658716 0 3.5770001
-2.6416917 0 3.5770001
-2.649615 0 3.6110001
-2.6316998 0 3.6100001
-2.6137943 0 3.6090002
-2.6232386 0 3.6460001
-2.6330452 0 3.6840003
-2.6190615 0 3.6890001
-2.6022091 0 3.6900001
-2.5853472 0 3.6910002
-2.5670846 0 3.6900001
-2.5502133 0 3.6910002
-2.4997101 0 3.6430001
-2.4721508 0 3.6280003
-2.4366138 0 3.6010001
-2.4282098 0 3.6140001
-2.409008 0 3.6110001
-2.3931465 0 3.6130002
-2.3943639 0 3.6410003
-2.3900919 0 3.6610003
-2.3778524 0 3.6690001
-2.4022067 0 3.7340002
-2.3825195 0 3.7310002
-2.3831427 0 3.7600002
-2.3784573 0 3.7810001
-2.3741968 0 3.8030002
-2.3691068 0 3.8240001
-2.3509068 0 3.8240001
-2.3327069 0 3.8240001
-2.3278227 0 3.8460002
-2.3095179 0 3.8460002
-2.3043196 0 3.8680003
-2.2995026 0 3.8910003
-2.2938805 0 3.9130001
-2.2886307 0 3.9360001
-2.2698975 0 3.9360001
-2.2643189 0 3.9590001
-2.2454765 0 3.9590001
-2.226634 0 3.9590001
-2.1949651 0 3.9360001
-2.1762321 0 3.9360001
-2.1574993 0 3.9360001
-2.151264 0 3.9590001
-2.1577368 0 4.006
-2.1514835 0 4.0300002
-2.1582294 0 4.079
-2.1519244 0 4.1040001
-2.1453817 0 4.1290002
-2.1391156 0 4.1550002
-2.1320918 0 4.1800003
-2.1258411 0 4.2070003
-2.105818 0 4.2070003
-2.0857954 0 4.2070003
-2.0785391 0 4.2330003
-2.071522 0 4.2600002
-2.0642478 0 4.2870002
-2.0567164 0 4.3140001
-2.0494001 0 4.342
-2.0287349 0 4.342
-2.0214813 0 4.3710003
-2.0267677 0 4.428
-2.0188289 0 4.4570003
-2.024508 0 4.5170002
-2.0167563 0 4.5480003
-2.0087094 0 4.579
-2.0003676 0 4.6100001
-1.9784268 0 4.6100001
-1.9700668 0 4.6420002
-1.9479736 0 4.6420002
-1.9258804 0 4.6420002
-1.9037873 0 4.6420002
-1.881694 0 4.6420002
-1.8724202 0 4.6740003
-1.8632376 0 4.7070003
-1.8537407 0 4.7400002
-1.8574512 0 4.8080001
-1.8475412 0 4.842
-1.8376844 0 4.8770003
-1.8278664 0 4.9130001
-1.8177058 0 4.9490004
-1.8075649 0 4.9860001
-1.7970721 0 5.0230002
-1.7731655 0 5.0230002
-1.749259 0 5.0230002
-1.7384051 0 5.0610003
-1.7014458 0 5.0230002
-1.6775393 0 5.0230002
-1.6661431 0 5.0610003
-1.6420555 0 5.0610003
-1.6179682 0 5.0610003
-1.6058484 0 5.0990005
-1.58158 0 5.0990005
-1.5573119 0 5.0990005
-1.5330436 0 5.0990005
-1.4862871 0 5.0230002
-1.4516085 0 4.9860001
-0 -0 0
-0 -0 0
-0 -0 0
-0 -0 0
-0 -0 0
-0 -0 0
-0.69328076 0 2.6890001
-0.6761806 0 2.6720002
-0.65551782 0 2.6400001
-0.63881272 0 2.6230001
-0.62513483 0 2.618
-0.61173862 0 2.6140001
-0.59883904 0 2.6120002
-0.58640742 0 2.6120002
-0.57419562 0 2.6130002
-0.56261921 0 2.6170001
-0.55058426 0 2.6190002
-0.54079044 0 2.6320002
-0.52826369 0 2.6320002
-0.51887208 0 2.6480002
-0.50703388 0 2.6520002
-0.4947848 0 2.654
-0.48833016 0 2.6880002
-0.47589064 0 2.6900001
-0.46377647 0 2.6940002
-0.45128939 0 2.6960001
-0.43927118 0 2.7010002
-0.42641604 0 2.7010002
-0.41356084 0 2.7010002
-0.40040892 0 2.6990001
-0.3871325 0 2.6960001
-0.37360698 0 2.6910002
-0.36200604 0 2.7
-0.34514681 0 2.6690001
-0.33194572 0 2.6650002
-0.31854311 0 2.6590002
-0.30611789 0 2.661
-0.29290172 0 2.6560001
-0.27857241 0 2.6400001
-0.265403 0 2.6340001
-0.2522907 0 2.628
-0.23841435 0 2.6130002
-0.22519965 0 2.6040001
-0.21084481 0 2.5800002
-0.19902731 0 2.5860002
-0.18686387 0 2.5880001
-0 -0 0
-0 -0 0
-0 -0 0
-0 -0 0
-0 -0 0
-0 -0 0
-0 -0 0
-0 -0 0
-0.03950166 0 1.345
-0.033075646 0 1.3440001
-0.026659142 0 1.3430001
-0.020252161 0 1.342
-0.013844368 0 1.34
-0.0074611851 0 1.3390001
-0.001086707 0 1.337
0.00527268 0 1.3360001
0.011622547 0 1.335
0.017976362 0 1.335
0.024311952 0 1.3340001
0.030661009 0 1.3340001
0.037010062 0 1.3340001
0.043359116 0 1.3340001
0.049708173 0 1.3340001
0.05605723 0 1.3340001
0.062406287 0 1.3340001
0.068755336 0 1.3340001
0.075104393 0 1.3340001
0.08145345 0 1.3340001
0.087802507 0 1.3340001
0.094151556 0 1.3340001
0.10057595 0 1.335
0.10692976 0 1.335
0.11328357 0 1.335
0.11972702 0 1.3360001
0.12617995 0 1.337
0.1325433 0 1.337
0.13890663 0 1.337
0.14526995 0 1.337
0.15163329 0 1.337
0.15799662 0 1.337
0.16435994 0 1.337
0.17085099 0 1.3380001
0.17735153 0 1.3390001
0.18372437 0 1.3390001
0.19009724 0 1.3390001
0.19661681 0 1.34
0.20299441 0 1.34
0.20937203 0 1.34
0.21591066 0 1.3410001
0.22229302 0 1.3410001
0.2286754 0 1.3410001
0.23505777 0 1.3410001
0.24144015 0 1.3410001
0.24782251 0 1.3410001
0.25439444 0 1.342
0.26078159 0 1.342
0.2671687 0 1.342
0.27355582 0 1.342
0.27994296 0 1.342
0.28654346 0 1.3430001
0.29293534 0 1.3430001
0.29932725 0 1.3430001
0.30571911 0 1.3430001
0.31234342 0 1.3440001
0.31874007 0 1.3440001
0.3253786 0 1.345
0.33202672 0 1.3460001
0.33868432 0 1.3470001
0.34535146 0 1.348
0.3520281 0 1.3490001
0.35844851 0 1.3490001
0.36513945 0 1.35
0.37183988 0 1.3510001
0.37854987 0 1.3520001
0.38498458 0 1.3520001
0.39141929 0 1.3520001
0 -0 0
0 -0 0
0 -0 0
0 -0 0
0 -0 0
0 -0 0
0 -0 0
1.051553 0 3.21
1.0664983 0 3.2090001
1.0814342 0 3.2080002
1.0990955 0 3.2150002
1.1001854 0 3.1740003
1.1170487 0 3.1790001
1.1339595 0 3.1840003
1.1480308 0 3.1810002
1.1617079 0 3.177
1.1686792 0 3.1550002
1.1701887 0 3.1190002
1.1732551 0 3.0880001
1.1644856 0 3.0270002
1.1446198 0 2.9390001
1.1270703 0 2.8590002
1.1007797 0 2.7590001
1.0848417 0 2.687
1.0788395 0 2.641
1.0744656 0 2.6000001
1.0676115 0 2.5540001
1.0780759 0 2.5500002
1.086792 0 2.5420001
1.0932707 0 2.529
1.103122 0 2.5240002
1.1133674 0 2.5200002
1.1231283 0 2.5150001
1.1323903 0 2.5090001
1.1429633 0 2.506
1.1521254 0 2.5
1.1644895 0 2.5010002
1.1749816 0 2.4980001
1.1726168 0 2.4680002
1.1824435 0 2.4640002
1.1927167 0 2.4610002
1.2029614 0 2.4580002
1.2126834 0 2.4540002
1.2233651 0 2.4520001
1.2214358 0 2.4250002
1.2345028 0 2.4280002
1.2239908 0 2.3850002
1.23327 0 2.381
1.2378068 0 2.368
1.2464397 0 2.3630002
1.2566217 0 2.3610001
1.2662477 0 2.358
1.2758451 0 2.355
1.2897861 0 2.3600001
1.3010184 0 2.3600001
1.3105824 0 2.3570001
1.3195572 0 2.3530002
1.3290595 0 2.3500001
1.3373923 0 2.345
1.3456779 0 2.3400002
1.3550755 0 2.3370001
1.362106 0 2.3300002
1.3696593 0 2.3240001
1.3783438 0 2.3200002
1.3839957 0 2.3110001
1.3756784 0 2.279
1.3846999 0 2.276
1.3985981 0 2.2810001
1.4076006 0 2.2780001
1.4165746 0 2.2750001
1.4211278 0 2.2650001
1.4344367 0 2.2690001
1.4471467 0 2.2720001
1.4592434 0 2.2740002
1.4700664 0 2.2740002
1.4808893 0 2.2740002
1.4910561 0 2.273
1.4998921 0 2.2700002
1.5080339 0 2.266
1.5174782 0 2.2640002
1.5120529 0 2.24
1.5063993 0 2.2160001
1.5107851 0 2.207
1.5143962 0 2.197
1.5213825 0 2.1920002
1.5283208 0 2.187
1.5366189 0 2.184
1.5441802 0 2.1800001
1.5481377 0 2.171
1.556317 0 2.1680002
1.5644675 0 2.1650002
1.5740441 0 2.164
1.5792186 0 2.1570001
1.588011 0 2.1550002
1.6004924 0 2.158
1.6100167 0 2.1570001
1.6135222 0 2.148
1.6245015 0 2.1490002
1.6354901 0 2.1500001
1.6518464 0 2.158
1.6644279 0 2.161
1.6770378 0 2.164
1.6959144 0 2.1750002
1.7164645 0 2.1880002
1.7434522 0 2.2090001
0 -0 0
1.9849395 0 2.4850001
2.0216758 0 2.516
2.0360754 0 2.5190001
2.0781472 0 2.5560002
2.0935833 0 2.5600002
2.10659 0 2.5610001
2.1187789 0 2.5610001
2.132632 0 2.5630002
2.1431565 0 2.5610001
2.1519792 0 2.5570002
2.162456 0 2.5550001
2.1720629 0 2.552
2.1824975 0 2.5500002
2.1929123 0 2.5480001
2.2033086 0 2.546
2.214556 0 2.5450001
2.2231691 0 2.5410001
2.2326236 0 2.5380001
2.2429342 0 2.536
2.2496688 0 2.5300002
0 -0 0
0 -0 0
0 -0 0
0 -0 0
0 -0 0
0 -0 0
0 -0 0
0 -0 0
0 -0 0
0 -0 0
0 -0 0
0 -0 0
0 -0 0
0 -0 0
0 -0 0
0 -0 0
0 -0 0
0 -0 0
0 -0 0
0 -0 0
0 -0 0
-0 -0 0
-0 -0 0
-0 -0 0
-0 -0 0
-0 -0 0
-0 -0 0
-0 -0 0
-0 -0 0
-2.963949 0 3.006
-2.9133358 0 2.9690001
-2.8972523 0 2.9670002
-2.8753574 0 2.9590001
-2.8757789 0 2.9740002
-2.8510396 0 2.9630001
-2.8493848 0 2.9760001
-2.837126 0 2.9780002
-2.8220046 0 2.9770002
-0 -0 0
-0 -0 0
-0 -0 0
-0 -0 0
-0 -0 0
-2.9089158 0 3.164
-2.9002597 0 3.1710002
-2.8915365 0 3.1780002
-2.9126151 0 3.2180002
-2.9396152 0 3.2650001
-2.9554212 0 3.3000002
-2.9593134 0 3.3220003
-2.9789453 0 3.3620002
-3.0078902 0 3.4130001
-3.0363503 0 3.4640002
-3.0538635 0 3.5030003
-3.0805423 0 3.5530002
-3.073117 0 3.5640001
-3.0947425 0 3.6090002
-3.0767131 0 3.6080003
-3.0578449 0 3.6060002
-3.038996 0 3.6040001
-3.014297 0 3.5950003
-2.9930182 0 3.5900002
-2.9386292 0 3.5450001
-2.9225814 0 3.5460002
-2.9057045 0 3.5460002
-2.8904567 0 3.5480001
-2.8751905 0 3.5500002
-2.8623202 0 3.5550001
-2.8462007 0 3.5560002
-2.8547366 0 3.5880001
-2.8337057 0 3.5830002
-2.8150802 0 3.5810001
-2.7839725 0 3.5630002
-2.7654614 0 3.5610001
-2.7461977 0 3.5580001
-2.7284968 0 3.5570002
-2.7123296 0 3.5580001
-2.6976683 0 3.5610001
-2.6822259 0 3.5630002
-2.6951897 0 3.6030002
-2.6787846 0 3.6040001
-2.6631088 0 3.6060002
-2.6488814 0 3.6100001
-2.6316998 0 3.6100001
-2.639143 0 3.6440003
-2.6232386 0 3.6460001
-2.6058855 0 3.6460001
-2.6197712 0 3.6900001
-2.5993881 0 3.6860001
-2.5804441 0 3.6840003
-2.5615191 0 3.6820002
-2.5108304 0 3.6340001
-2.4928484 0 3.6330001
-2.4326289 0 3.5700002
-2.4163144 0 3.5710001
-2.402678 0 3.5760002
-2.3856585 0 3.5760002
-2.3931465 0 3.6130002
-2.3969944 0 3.6450002
-2.3842163 0 3.6520002
-2.3947029 0 3.6950002
-2.4028499 0 3.7350001
-2.4010382 0 3.7600002
-2.3964527 0 3.7810001
-2.3922966 0 3.8030002
-2.3873069 0 3.8240001
-2.3691068 0 3.8240001
-2.3509068 0 3.8240001
-2.3461273 0 3.8460002
-2.3278227 0 3.8460002
-2.3095179 0 3.8460002
-2.3043196 0 3.8680003
-2.2859101 0 3.8680003
-2.2809837 0 3.8910003
-2.2752571 0 3.9130001
-2.2698975 0 3.9360001
-2.2511644 0 3.9360001
-2.2324312 0 3.9360001
-2.2136984 0 3.9360001
-2.1821389 0 3.9130001
-2.1513515 0 3.8910003
-2.1328328 0 3.8910003
-2.1143138 0 3.8910003
-2.1076446 0 3.9130001
-2.1013 0 3.9360001
-2.0947366 0 3.9590001
-2.0884783 0 3.9830003
-2.0814722 0 4.006
-2.0747619 0 4.0300002
-2.0683331 0 4.0550003
-2.0611613 0 4.079
-2.0542612 0 4.1040001
-2.0471234 0 4.1290002
-2.0402386 0 4.1550002
-2.0457497 0 4.2070003
-2.0382462 0 4.2330003
-2.0309718 0 4.2600002
-2.0234406 0 4.2870002
-2.0156524 0 4.3140001
-2.0080695 0 4.342
-2.013494 0 4.3990002
-2.005693 0 4.428
-2.0110619 0 4.487
-2.0030098 0 4.5170002
-1.9951106 0 4.5480003
-1.9734647 0 4.5480003
-1.9651228 0 4.579
-1.9433296 0 4.579
-1.934545 0 4.6100001
-1.9126042 0 4.6100001
-1.8906634 0 4.6100001
-1.881694 0 4.6420002
-1.8724202 0 4.6740003
-1.8632376 0 4.7070003
-1.8666465 0 4.7730002
-1.8574512 0 4.8080001
-1.8608961 0 4.8770003
-1.8512493 0 4.9130001
-1.8412602 0 4.9490004
-1.8312953 0 4.9860001
-1.8209785 0 5.0230002
-1.7970721 0 5.0230002
-1.7731655 0 5.0230002
-1.749259 0 5.0230002
-1.7384051 0 5.0610003
-1.7014458 0 5.0230002
-1.6775393 0 5.0230002
-1.6661431 0 5.0610003
-1.6420555 0 5.0610003
-1.6179682 0 5.0610003
-1.6058484 0 5.0990005
-1.5936767 0 5.138
-1.5692229 0 5.138
-1.5330436 0 5.0990005
-1.4975312 0 5.0610003
-1.4516085 0 4.9860001
-0 -0 0
-0 -0 0
-0 -0 0
-0 -0 0
-0 -0 0
-0 -0 0
-0.69379646 0 2.6910002
-0.67542142 0 2.6690001
-0.65502119 0 2.638
-0.63856924 0 2.6220002
-0.62465733 0 2.6160002
-0.61127061 0 2.6120002
-0.59838051 0 2.6100001
-0.58618289 0 2.6110001
-0.57397586 0 2.6120002
-0.56218922 0 2.615
-0.55037403 0 2.618
-0.54140687 0 2.6350002
-0.53027076 0 2.6420002
-0.51926398 0 2.6500001
-0.50646037 0 2.6490002
-0.49422553 0 2.651
-0.48760343 0 2.684
-0.47589064 0 2.6900001
-0.4636043 0 2.6930001
-0.45128939 0 2.6960001
-0.43927118 0 2.7010002
-0.42641604 0 2.7010002
-0.41356084 0 2.7010002
-0.40040892 0 2.6990001
-0.3874197 0 2.6980002
-0.3737458 0 2.6920002
-0.36214015 0 2.7010002
-0.34889701 0 2.6980002
-0.33194572 0 2.6650002
-0.31854311 0 2.6590002
-0.30623296 0 2.6620002
-0.29301199 0 2.6570001
-0.27867791 0 2.641
-0.26550376 0 2.6350002
-0.25382671 0 2.6440001
-0.23804939 0 2.6090002
-0.22537263 0 2.6060002
-0.21198893 0 2.5940001
-0.1984116 0 2.5780001
-0.18700828 0 2.5900002
-0 -0 0
-0 -0 0
-0 -0 0
-0 -0 0
-0 -0 0
-0 -0 0
-0 -0 0
-0 -0 0
-0.03950166 0 1.345
-0.033075646 0 1.3440001
-0.026659142 0 1.3430001
-0.020237071 0 1.3410001
-0.013844368 0 1.34
-0.0074611851 0 1.3390001
-0.0010875198 0 1.3380001
0.005276626 0 1.337
0.011622547 0 1.335
0.017976362 0 1.335
0.024311952 0 1.3340001
0.030661009 0 1.3340001
0.037010062 0 1.3340001
0.043359116 0 1.3340001
0.049708173 0 1.3340001
0.05605723 0 1.3340001
0.062406287 0 1.3340001
0.068755336 0 1.3340001
0.075104393 0 1.3340001
0.08145345 0 1.3340001
0.087802507 0 1.3340001
0.094151556 0 1.3340001
0.10057595 0 1.335
0.10700987 0 1.3360001
0.11336844 0 1.3360001
0.11981662 0 1.337
0.12617995 0 1.337
0.1325433 0 1.337
0.13890663 0 1.337
0.14526995 0 1.337
0.15163329 0 1.337
0.15799662 0 1.337
0.16448289 0 1.3380001
0.17085099 0 1.3380001
0.17735153 0 1.3390001
0.18372437 0 1.3390001
0.19009724 0 1.3390001
0.19661681 0 1.34
0.20299441 0 1.34
0.20937203 0 1.34
0.21591066 0 1.3410001
0.22229302 0 1.3410001
0.2286754 0 1.3410001
0.23505777 0 1.3410001
0.24144015 0 1.3410001
0.24782251 0 1.3410001
0.25439444 0 1.342
0.26078159 0 1.342
0.2671687 0 1.342
0.27355582 0 1.342
0.27994296 0 1.342
0.28654346 0 1.3430001
0.29293534 0 1.3430001
0.29932725 0 1.3430001
0.30571911 0 1.3430001
0.31234342 0 1.3440001
0.31897721 0 1.345
0.3253786 0 1.345
0.33202672 0 1.3460001
0.33868432 0 1.3470001
0.34535146 0 1.348
0.3520281 0 1.3490001
0.35871422 0 1.35
0.36540994 0 1.3510001
0.37211514 0 1.3520001
0.37882987 0 1.353
0.38555408 0 1.3540001
0.39199832 0 1.3540001
0 -0 0
0 -0 0
0 -0 0
0 -0 0
0 -0 0
0 -0 0
0 -0 0
1.0522082 0 3.2120001
1.067163 0 3.2110002
1.0821084 0 3.21
1.0997792 0 3.2170002
1.1098908 0 3.2020001
1.1174001 0 3.1800001
1.1346718 0 3.1860001
1.1487526 0 3.1830001
1.1628048 0 3.1800001
1.1664567 0 3.1490002
1.1694382 0 3.1170001
1.1702156 0 3.0800002
1.1637161 0 3.0250001
1.1411147 0 2.9300001
1.1266761 0 2.858
1.1011786 0 2.7600002
1.0844381 0 2.6860001
1.078431 0 2.6400001
1.0740525 0 2.5990002
1.0671935 0 2.5530002
1.0776531 0 2.549
1.0863645 0 2.5410001
1.0932707 0 2.529
1.1026849 0 2.523
1.1124839 0 2.5180001
1.1217886 0 2.5120001
1.1314876 0 2.5070002
1.1393147 0 2.4980001
1.1502819 0 2.4960001
1.1509868 0 2.4720001
1.1604002 0 2.467
1.1716665 0 2.4660001
1.1814837 0 2.4620001
1.192232 0 2.46
1.202472 0 2.457
1.2121892 0 2.4530001
1.211391 0 2.4280002
1.2274799 0 2.437
1.2116227 0 2.3830001
1.2229643 0 2.3830001
1.2317162 0 2.378
1.2388524 0 2.3700001
1.2480222 0 2.3660002
1.2576863 0 2.3630002
1.2673217 0 2.3600001
1.2769285 0 2.3570001
1.2903326 0 2.3610001
1.3015696 0 2.3610001
1.3111384 0 2.358
1.3195572 0 2.3530002
1.3290595 0 2.3500001
1.3373923 0 2.345
1.3456779 0 2.3400002
1.3544956 0 2.3360002
1.362106 0 2.3300002
1.3696593 0 2.3240001
1.3771554 0 2.3180001
1.3827978 0 2.309
1.3756784 0 2.279
1.3846999 0 2.276
1.3992112 0 2.2820001
1.4082185 0 2.279
1.4115933 0 2.2670002
1.4148536 0 2.2550001
1.4338045 0 2.2680001
1.4471467 0 2.2720001
1.4592434 0 2.2740002
1.4700664 0 2.2740002
1.4808893 0 2.2740002
1.4904001 0 2.2720001
1.4992313 0 2.2690001
1.5053719 0 2.2620001
1.5147971 0 2.26
1.5093528 0 2.2360001
1.5063993 0 2.2160001
1.5114698 0 2.2080002
1.5137069 0 2.1960001
1.5199943 0 2.1900001
1.527622 0 2.1860001
1.5352118 0 2.1820002
1.5434719 0 2.1790001
1.5495639 0 2.1730001
1.555599 0 2.1670001
1.5644675 0 2.1650002
1.5725894 0 2.1620002
1.5814151 0 2.1600001
1.5828526 0 2.148
1.5915927 0 2.1460001
1.6010599 0 2.1450002
1.6112689 0 2.1450002
1.6222337 0 2.1460001
1.6339686 0 2.148
1.6464882 0 2.151
1.6590364 0 2.154
1.6762629 0 2.1630001
1.6974738 0 2.177
1.7133265 0 2.184
1.7616049 0 2.2320001
0 -0 0
1.9481961 0 2.4390001
2.0232828 0 2.5180001
2.0360754 0 2.5190001
2.0773342 0 2.5550001
2.0927653 0 2.559
2.1049447 0 2.559
2.1171241 0 2.559
2.1301355 0 2.5600002
2.1398091 0 2.5570002
2.1494544 0 2.5540001
2.1599169 0 2.552
2.1703608 0 2.5500002
2.1799297 0 2.5470002
2.1911912 0 2.546
2.2015779 0 2.5440001
2.2110753 0 2.5410001
2.2214191 0 2.539
2.2299845 0 2.5350001
2.2376277 0 2.5300002
2.2461119 0 2.526
2.2456188 0 2.5120001
0 -0 0
0 -0 0
0 -0 0
0 -0 0
0 -0 0
0 -0 0
0 -0 0
0 -0 0
0 -0 0
0 -0 0
0 -0 0
0 -0 0
0 -0 0
0 -0 0
0 -0 0
0 -0 0
0 -0 0
0 -0 0
0 -0 0
0 -0 0
-0 -0 0
-0 -0 0
-0 -0 0
-0 -0 0
-0 -0 0
-0 -0 0
-0 -0 0
-0 -0 0
-2.9718373 0 3.0140002
-2.9152985 0 2.9710002
-2.8992052 0 2.9690001
-2.8841028 0 2.9680002
-2.8719108 0 2.97
-2.8548889 0 2.9670002
-2.8426826 0 2.9690001
-2.8409369 0 2.9820001
-2.8239005 0 2.9790001
-0 -0 0
-0 -0 0
-0 -0 0
-0 -0 0
-0 -0 0
-2.9089158 0 3.164
-2.8929424 0 3.1630001
-2.9342999 0 3.2250001
-2.9379578 0 3.2460001
-2.95222 0 3.279
-2.9661684 0 3.3120003
-2.9539683 0 3.3160002
-2.990464 0 3.3750002
-3.0114155 0 3.4170001
-3.0363503 0 3.4640002
-3.0556068 0 3.5050001
-3.0814095 0 3.5540001
-3.073117 0 3.5640001
-3.0981724 0 3.6130002
-3.0792711 0 3.6110001
-3.0603888 0 3.6090002
-3.0406826 0 3.6060002
-3.0117817 0 3.5920002
-2.9896834 0 3.5860002
-2.9659843 0 3.5780001
-2.9234054 0 3.5470002
-2.9065237 0 3.5470002
-2.8912716 0 3.5490003
-2.8760002 0 3.5510001
-2.8623202 0 3.5550001
-2.8742144 0 3.5910001
-2.8547366 0 3.5880001
-2.8447778 0 3.5970001
-2.8308024 0 3.6010001
-2.8175709 0 3.6060002
-2.8011849 0 3.6070001
-2.7847896 0 3.6080003
-2.7683847 0 3.6090002
-2.7512081 0 3.6090002
-2.7575154 0 3.6400001
-2.7401915 0 3.6400001
-2.7251112 0 3.6430001
-2.7077725 0 3.6430001
-2.6889572 0 3.6410003
-2.6723619 0 3.6420002
-2.655757 0 3.6430001
-2.639143 0 3.6440003
-2.6534569 0 3.6880002
-2.6366186 0 3.6890001
-2.6169314 0 3.6860001
-2.5986831 0 3.6850002
-2.5797436 0 3.6830001
-2.5601277 0 3.6800001
-2.496321 0 3.6130002
-2.4791253 0 3.6130002
-2.4312661 0 3.5680001
-2.4163144 0 3.5710001
-2.4060373 0 3.5810001
-2.3916626 0 3.5850003
-2.3944712 0 3.6150002
-2.4029129 0 3.6540003
-2.4083717 0 3.6890001
-2.3940547 0 3.6940002
-2.4028499 0 3.7350001
-2.4144483 0 3.7810001
-2.3964527 0 3.7810001
-2.3922966 0 3.8030002
-2.3873069 0 3.8240001
-2.3827367 0 3.8460002
-2.3644319 0 3.8460002
-2.3461273 0 3.8460002
-2.3278227 0 3.8460002
-2.3095179 0 3.8460002
-2.3043196 0 3.8680003
-2.2995026 0 3.8910003
-2.2938805 0 3.9130001
-2.2886307 0 3.9360001
-2.2698975 0 3.9360001
-2.2511644 0 3.9360001
-2.2324312 0 3.9360001
-2.2007625 0 3.9130001
-2.1698704 0 3.8910003
-2.1386347 0 3.8680003
-2.1202254 0 3.8680003
-2.0898614 0 3.8460002
-2.0834064 0 3.8680003
-2.0772762 0 3.8910003
-2.0587573 0 3.8910003
-2.0517738 0 3.9130001
-2.0331504 0 3.9130001
-2.0263679 0 3.9360001
-2.0193663 0 3.9590001
-2.0126514 0 3.9830003
-2.0172205 0 4.0300002
-2.0104351 0 4.0550003
-2.0029202 0 4.079
-2.0078204 0 4.1290002
-2.0127261 0 4.1800003
-2.0057039 0 4.2070003
-1.9979529 0 4.2330003
-1.9904217 0 4.2600002
-1.9826334 0 4.2870002
-1.9745882 0 4.3140001
-1.9798747 0 4.3710003
-1.9846183 0 4.428
-1.9764035 0 4.4570003
-1.9683511 0 4.487
-1.9600132 0 4.5170002
-1.9385149 0 4.5170002
-1.9301733 0 4.5480003
-1.9085274 0 4.5480003
-1.8997428 0 4.579
-1.8906634 0 4.6100001
-1.881694 0 4.6420002
-1.8724202 0 4.6740003
-1.8632376 0 4.7070003
-1.8666465 0 4.7730002
-1.8705863 0 4.842
-1.8746325 0 4.9130001
-1.8648144 0 4.9490004
-1.8550258 0 4.9860001
-1.844885 0 5.0230002
-1.8209785 0 5.0230002
-1.7970721 0 5.0230002
-1.7731655 0 5.0230002
-1.749259 0 5.0230002
-1.7253525 0 5.0230002
-1.7014458 0 5.0230002
-1.6775393 0 5.0230002
-1.6536329 0 5.0230002
-1.6420555 0 5.0610003
-1.6179682 0 5.0610003
-1.6058484 0 5.0990005
-1.5936767 0 5.138
-1.5692229 0 5.138
-1.544769 0 5.138
-1.5087754 0 5.0990005
-1.4623806 0 5.0230002
-0 -0 0
-0 -0 0
-0 -0 0
-0 -0 0
-0 -0 0
-0 -0 0
-0.69405425 0 2.6920002
-0.67491525 0 2.6670001
-0.65477288 0 2.6370001
-0.63808209 0 2.6200001
-0.6244185 0 2.615
-0.61127061 0 2.6120002
-0.59838051 0 2.6100001
-0.58573395 0 2.6090002
-0.5737561 0 2.6110001
-0.56175923 0 2.6130002
-0.54995358 0 2.6160002
-0.53544831 0 2.6060002
-0.53047144 0 2.6430001
-0.51906806 0 2.6490002
-0.50798982 0 2.6570001
-0.49403909 0 2.6500001
-0.48179001 0 2.6520002
-0.47571373 0 2.6890001
-0.4636043 0 2.6930001
-0.45145676 0 2.697
-0.43910852 0 2.7
-0.42641604 0 2.7010002
-0.41340771 0 2.7
-0.40040892 0 2.6990001
-0.38698891 0 2.6950002
