# .PCD v0.7 - Point Cloud Data file format
VERSION 0.7
FIELDS x y z
SIZE 4 4 4
TYPE F F F
COUNT 1 1 1
WIDTH 2358
HEIGHT 1
VIEWPOINT 0 0 0 1 0 0 0
POINTS 2358
DATA ascii
-0.27572337 0 2.6130002
-0.26268247 0 2.6070001
-0.24989067 0 2.6030002
-0.23713697 0 2.5990002
-0.22199981 0 2.5670002
-0.20929207 0 2.5610001
-0.19694929 0 2.559
-0.18260382 0 2.529
-0 -0 0
-0 -0 0
-0 -0 0
-0 -0 0
-0 -0 0
-0 -0 0
-0 -0 0
-0 -0 0
-0 -0 0
-0.033174083 0 1.348
-0.026758395 0 1.348
-0.020327618 0 1.3470001
-0.013906358 0 1.3460001
-0.0074946177 0 1.345
-0.0010923966 0 1.3440001
0.0053003058 0 1.3430001
0.011683489 0 1.342
0.01807062 0 1.342
0.024457749 0 1.342
0.030821897 0 1.3410001
0.037176523 0 1.34
0.043554131 0 1.34
0.049894486 0 1.3390001
0.05626734 0 1.3390001
0.06264019 0 1.3390001
0.069013044 0 1.3390001
0.075385898 0 1.3390001
0.081758745 0 1.3390001
0.088131599 0 1.3390001
0.094504453 0 1.3390001
0.10087731 0 1.3390001
0.10725015 0 1.3390001
0.11362301 0 1.3390001
0.11999586 0 1.3390001
0.12636872 0 1.3390001
0.13274157 0 1.3390001
0.13911442 0 1.3390001
0.14548726 0 1.3390001
0.15197353 0 1.34
0.15835114 0 1.34
0.16485168 0 1.3410001
0.17123406 0 1.3410001
0.17761643 0 1.3410001
0.18399879 0 1.3410001
0.19038117 0 1.3410001
0.19691026 0 1.342
0.20329739 0 1.342
0.20984077 0 1.3430001
0.21623267 0 1.3430001
0.22262456 0 1.3430001
0.22901644 0 1.3430001
0.23540834 0 1.3430001
0.24180023 0 1.3430001
0.24819212 0 1.3430001
0.25477359 0 1.3440001
0.26117024 0 1.3440001
0.26756686 0 1.3440001
0.27416736 0 1.345
0.28056878 0 1.345
0.28718352 0 1.3460001
0.29380783 0 1.3470001
0.30044162 0 1.348
0.30731258 0 1.35
0.31397021 0 1.3510001
0.32087448 0 1.353
0.32755589 0 1.3540001
0.33449349 0 1.3560001
0.34119868 0 1.3570001
0.34791338 0 1.358
0.35463762 0 1.3590001
0.36137137 0 1.36
0.36784419 0 1.36
0.37431696 0 1.36
0.38078979 0 1.36
0.38640836 0 1.3570001
0 -0 0
0 -0 0
0 -0 0
0 -0 0
0 -0 0
0 -0 0
0 -0 0
1.0575819 0 3.2760003
1.0728462 0 3.2750001
1.0804569 0 3.2510002
1.0959297 0 3.2510002
1.100121 0 3.2180002
1.1067712 0 3.1930001
1.1184542 0 3.1830001
1.132535 0 3.1800001
1.1476698 0 3.1800001
1.1554916 0 3.1600001
1.1690496 0 3.1560001
1.1611842 0 3.095
1.1561579 0 3.0430002
1.1406342 0 2.9650002
1.123589 0 2.8850002
1.1057825 0 2.8050001
1.0888103 0 2.7290001
1.0856493 0 2.6890001
1.0788395 0 2.641
1.0769452 0 2.6060002
1.0742997 0 2.5700002
1.079767 0 2.5540001
1.0876471 0 2.5440001
1.0975935 0 2.539
1.103996 0 2.526
1.1182274 0 2.5310001
1.1191092 0 2.506
1.1332929 0 2.5110002
1.1438755 0 2.5080001
1.1475168 0 2.49
0 -0 0
0 -0 0
0 -0 0
1.1670871 0 2.4320002
1.1791465 0 2.4330001
1.1912156 0 2.434
1.2037884 0 2.4360001
1.2183759 0 2.4420002
1.2340279 0 2.45
1.2477223 0 2.4540002
1.2619678 0 2.4590001
1.275743 0 2.4630001
1.2864201 0 2.4610002
1.2997154 0 2.4640002
1.3109103 0 2.4630001
1.3215588 0 2.4610002
1.3224365 0 2.4410002
1.3258564 0 2.4260001
1.3252746 0 2.404
1.334492 0 2.4000001
1.3223611 0 2.358
1.3318871 0 2.355
1.3408142 0 2.3510001
1.3485532 0 2.345
1.3626133 0 2.3500001
1.3714595 0 2.3460002
1.3802676 0 2.342
1.385473 0 2.332
1.3947753 0 2.329
1.396202 0 2.3130002
1.4047768 0 2.309
1.4145401 0 2.3070002
1.4174871 0 2.2940001
1.4277827 0 2.2930002
1.4380684 0 2.2920001
1.4527702 0 2.2980001
1.4617965 0 2.2950001
1.4624519 0 2.279
1.4784704 0 2.2870002
1.480238 0 2.273
1.4812163 0 2.2580001
1.4893202 0 2.2540002
1.4933929 0 2.2440002
1.4920081 0 2.2260001
1.4965273 0 2.217
1.5030005 0 2.2110002
1.5169461 0 2.2160001
1.4950958 0 2.1690001
1.5026428 0 2.1650002
1.5087539 0 2.1590002
1.5148079 0 2.1530001
1.52293 0 2.1500001
1.5317364 0 2.148
1.5398062 0 2.1450002
1.5398984 0 2.131
1.5565871 0 2.1400001
1.5660402 0 2.1390002
1.5776943 0 2.141
1.5878843 0 2.141
1.5988206 0 2.1420002
1.6097665 0 2.1430001
1.6207218 0 2.1440001
1.6324474 0 2.1460001
1.6441919 0 2.148
1.6559556 0 2.1500001
1.672388 0 2.158
1.688117 0 2.1650002
1.7266629 0 2.2010002
1.7671297 0 2.2390001
1.8238386 0 2.2970002
1.8930811 0 2.3700001
1.9517689 0 2.4290001
2.0134435 0 2.4910002
2.0301774 0 2.4970002
2.0436971 0 2.4990001
2.0564134 0 2.5
2.0674849 0 2.4990001
2.0777144 0 2.4970002
2.0870881 0 2.4940002
2.0964334 0 2.4910002
2.1049035 0 2.4870002
2.1150379 0 2.4850001
2.0917737 0 2.444
2.0973814 0 2.437
2.1184995 0 2.4480002
2.0927339 0 2.4050002
2.1006804 0 2.401
2.1085889 0 2.3970001
2.1093843 0 2.3850002
2.1189568 0 2.3830001
2.1294048 0 2.3820002
2.151526 0 2.3940001
2.1565957 0 2.3870001
2.1661401 0 2.3850002
2.1747525 0 2.3820002
2.1851714 0 2.381
2.2001936 0 2.3850002
2.2013447 0 2.3740001
2.2117116 0 2.3730001
2.2230058 0 2.3730001
2.2342999 0 2.3730001
2.2465401 0 2.3740001
2.2673497 0 2.3840001
2.274873 0 2.3800001
2.2881215 0 2.3820002
0 -0 0
0 -0 0
0 -0 0
0 -0 0
0 -0 0
0 -0 0
-0 -0 0
-0 -0 0
-0 -0 0
-0 -0 0
-0 -0 0
-3.5920386 0 3.5910001
-3.5749476 0 3.5910001
-3.5568657 0 3.5900002
-3.4894931 0 3.5390003
-3.4687243 0 3.5350001
-3.3874512 0 3.4690001
-3.3204107 0 3.4170001
-3.2383938 0 3.3490002
-0 -0 0
-0 -0 0
-0 -0 0
-0 -0 0
-0 -0 0
-0 -0 0
-0 -0 0
-0 -0 0
-0 -0 0
-3.2270212 0 3.5100002
-3.1600115 0 3.4550002
-3.141748 0 3.4530001
-3.1072116 0 3.4330001
-3.0917733 0 3.4340003
-3.0754292 0 3.4340003
-3.0581944 0 3.4330001
-3.0790703 0 3.4750001
-3.06165 0 3.4740002
-3.0845602 0 3.5190001
-3.1070423 0 3.5640001
-3.101351 0 3.5770001
-3.1110568 0 3.6080003
-3.0947425 0 3.6090002
-3.1142337 0 3.6520002
-3.0943084 0 3.6490002
-3.0659795 0 3.6360002
-3.0595744 0 3.6490002
-3.0438745 0 3.6510003
-3.0273268 0 3.6520002
-3.0429132 0 3.6920002
-3.0237024 0 3.6900001
-3.0077696 0 3.6920002
-2.991818 0 3.6940002
-2.9710157 0 3.6900001
-2.9846687 0 3.7290001
-2.9653299 0 3.7270002
-2.9491732 0 3.7290001
-2.955795 0 3.7600002
-2.9543083 0 3.7810001
-2.9363127 0 3.7810001
-2.9352977 0 3.8030002
-2.9333065 0 3.8240001
-2.9318776 0 3.8460002
-2.9302392 0 3.8680003
-2.9118299 0 3.8680003
-2.9270821 0 3.9130001
-2.9084585 0 3.9130001
-2.8898351 0 3.9130001
-2.8712113 0 3.9130001
-2.8365498 0 3.8910003
-2.8013735 0 3.8680003
-2.7671354 0 3.8460002
-2.7331066 0 3.8240001
-2.7149067 0 3.8240001
-2.6818974 0 3.8030002
-2.6785066 0 3.8240001
-2.6603067 0 3.8240001
-2.6573071 0 3.8460002
-2.654098 0 3.8680003
-2.6513612 0 3.8910003
-2.6328423 0 3.8910003
-2.6291049 0 3.9130001
-2.6258254 0 3.9360001
-2.6223269 0 3.9590001
-2.619267 0 3.9830003
-2.6153259 0 4.006
-2.611814 0 4.0300002
-2.6087167 0 4.0550003
-2.604743 0 4.079
-2.6170201 0 4.1290002
-2.5973685 0 4.1290002
-2.5777171 0 4.1290002
-2.5580654 0 4.1290002
-2.5384138 0 4.1290002
-2.5187624 0 4.1290002
-2.5148473 0 4.1550002
-2.5100844 0 4.1800003
-2.5062752 0 4.2070003
-2.4862523 0 4.2070003
-2.4662292 0 4.2070003
-2.4462066 0 4.2070003
-2.4411778 0 4.2330003
-2.4210312 0 4.2330003
-2.4161985 0 4.2600002
-2.3959236 0 4.2600002
-2.3756485 0 4.2600002
-2.3703017 0 4.2870002
-2.3498981 0 4.2870002
-2.3441658 0 4.3140001
-2.3387153 0 4.342
-2.3180499 0 4.342
-2.2973845 0 4.342
-2.2767191 0 4.342
-2.2711222 0 4.3710003
-2.2503188 0 4.3710003
-2.2437971 0 4.3990002
-2.2228606 0 4.3990002
-2.2019238 0 4.3990002
-2.1953652 0 4.428
-2.1742904 0 4.428
-2.1673179 0 4.4570003
-2.1461051 0 4.4570003
-2.1110663 0 4.428
-2.0899918 0 4.428
-2.0824671 0 4.4570003
-2.0612543 0 4.4570003
-2.0400417 0 4.4570003
-2.0188289 0 4.4570003
-1.9976162 0 4.4570003
-1.9897065 0 4.487
-1.9683511 0 4.487
-1.9600132 0 4.5170002
-1.9518191 0 4.5480003
-1.956486 0 4.6100001
-1.9614021 0 4.6740003
-1.9528477 0 4.7070003
-1.9575133 0 4.7730002
-1.9489841 0 4.8080001
-1.9397215 0 4.842
-1.9166764 0 4.842
-1.8936312 0 4.842
-1.8705863 0 4.842
-1.834568 0 4.8080001
-1.7984965 0 4.7730002
-1.7757798 0 4.7730002
-1.7409426 0 4.7400002
-1.7183831 0 4.7400002
-1.6958236 0 4.7400002
-1.6849132 0 4.7730002
-1.6621965 0 4.7730002
-1.651502 0 4.8080001
-1.6519911 0 4.8770003
-1.6287795 0 4.8770003
-1.6292713 0 4.9490004
-1.6177214 0 4.9860001
-1.6058198 0 5.0230002
-1.5938809 0 5.0610003
-1.58158 0 5.0990005
-1.5573119 0 5.0990005
-1.5216187 0 5.0610003
-1.4975312 0 5.0610003
-0 -0 0
-0 -0 0
-0 -0 0
-0 -0 0
-0 -0 0
-0 -0 0
-0.69820142 0 2.6590002
-0.68503046 0 2.6570001
-0.66403365 0 2.6240001
-0.65080005 0 2.6210001
-0.6378386 0 2.6190002
-0.62465733 0 2.6160002
-0.6122067 0 2.6160002
-0.59975606 0 2.6160002
-0.58775443 0 2.618
-0.57551408 0 2.6190002
-0.56369418 0 2.6220002
-0.55100471 0 2.6210001
-0.53914666 0 2.6240001
-0.526658 0 2.6240001
-0.51514906 0 2.6290002
-0.50359249 0 2.6340001
-0.49180192 0 2.638
-0.48069999 0 2.6460001
-0.4689911 0 2.651
-0.46205494 0 2.684
-0.44928065 0 2.684
-0.43634376 0 2.6830001
-0.42325857 0 2.6810002
-0.41003922 0 2.6780002
-0.39670005 0 2.674
-0.38325542 0 2.6690001
-0.36930305 0 2.6600001
-0.35570449 0 2.6530001
-0.34243116 0 2.6480002
-0.32883179 0 2.6400001
-0.31542835 0 2.6330001
-0.30220661 0 2.6270001
-0.28860083 0 2.6170001
-0.27445713 0 2.6010001
-0.26197717 0 2.6000001
-0.24893066 0 2.5930002
-0.23622456 0 2.5890002
-0.22234574 0 2.5710001
-0.20961896 0 2.5650001
-0.19718018 0 2.562
-0.18224281 0 2.5240002
-0 -0 0
-0 -0 0
-0 -0 0
-0 -0 0
-0 -0 0
-0 -0 0
-0 -0 0
-0 -0 0
-0 -0 0
-0.033198692 0 1.3490001
-0.026778245 0 1.3490001
-0.020342708 0 1.348
-0.01391669 0 1.3470001
-0.0074946177 0 1.345
-0.0010923966 0 1.3440001
0.0053003058 0 1.3430001
0.011683489 0 1.342
0.01807062 0 1.342
0.024457749 0 1.342
0.030821897 0 1.3410001
0.037176523 0 1.34
0.043554131 0 1.34
0.049894486 0 1.3390001
0.05626734 0 1.3390001
0.06264019 0 1.3390001
0.069013044 0 1.3390001
0.075385898 0 1.3390001
0.081758745 0 1.3390001
0.088131599 0 1.3390001
0.094504453 0 1.3390001
0.10087731 0 1.3390001
0.10725015 0 1.3390001
0.11362301 0 1.3390001
0.11999586 0 1.3390001
0.12636872 0 1.3390001
0.13274157 0 1.3390001
0.13911442 0 1.3390001
0.14559591 0 1.34
0.15197353 0 1.34
0.15835114 0 1.34
0.16485168 0 1.3410001
0.17123406 0 1.3410001
0.17761643 0 1.3410001
0.18399879 0 1.3410001
0.19052313 0 1.342
0.19691026 0 1.342
0.20344888 0 1.3430001
0.20984077 0 1.3430001
0.21623267 0 1.3430001
0.22262456 0 1.3430001
0.22901644 0 1.3430001
0.23540834 0 1.3430001
0.24180023 0 1.3430001
0.24819212 0 1.3430001
0.25477359 0 1.3440001
0.26117024 0 1.3440001
0.26756686 0 1.3440001
0.27416736 0 1.345
0.28077739 0 1.3460001
0.28739691 0 1.3470001
0.29402596 0 1.348
0.30066451 0 1.3490001
0.30754024 0 1.3510001
0.31420261 0 1.3520001
0.32087448 0 1.353
0.32779777 0 1.355
0.33474016 0 1.3570001
0.3414501 0 1.358
0.3481696 0 1.3590001
0.35489857 0 1.36
0.36163709 0 1.3610001
0.36838517 0 1.3620001
0.37486747 0 1.3620001
0.3813498 0 1.3620001
0.38697785 0 1.3590001
0 -0 0
0 -0 0
0 -0 0
0 -0 0
0 -0 0
0 -0 0
0 -0 0
1.0579047 0 3.2770002
1.0698979 0 3.2660003
1.0804569 0 3.2510002
1.0955927 0 3.2500002
1.0967025 0 3.2080002
1.1067712 0 3.1930001
1.1166973 0 3.1780002
1.1321788 0 3.1790001
1.1465871 0 3.177
1.1547604 0 3.1580002
1.1586779 0 3.1280003
1.1611842 0 3.095
1.1569177 0 3.0450001
1.1406342 0 2.9650002
1.1247575 0 2.8880002
1.1061769 0 2.8060002
1.1043705 0 2.7680001
1.0820156 0 2.6800001
1.0837415 0 2.6530001
1.0773584 0 2.6070001
1.0738816 0 2.569
1.0827264 0 2.5610001
1.0825167 0 2.5320001
1.0958644 0 2.5350001
1.1061814 0 2.5310001
1.1164602 0 2.5270002
1.1191092 0 2.506
1.1319389 0 2.5080001
1.1425072 0 2.5050001
0 -0 0
0 -0 0
0 -0 0
0 -0 0
0 -0 0
1.1801159 0 2.4350002
1.1926838 0 2.437
1.2052709 0 2.4390001
1.217877 0 2.4410002
1.2340279 0 2.45
1.2472137 0 2.4530001
1.2604282 0 2.4560001
1.2741891 0 2.46
1.2853746 0 2.4590001
1.2976054 0 2.46
1.3082492 0 2.4580002
1.3188738 0 2.4560001
1.3240616 0 2.444
1.3220308 0 2.4190001
1.3269285 0 2.4070001
1.3133626 0 2.3620002
1.3223611 0 2.358
1.3313217 0 2.3540001
1.3408142 0 2.3510001
1.3491284 0 2.3460002
1.3556552 0 2.3380001
1.3644443 0 2.3340001
1.3731954 0 2.3300002
1.3860673 0 2.3330002
1.3947753 0 2.329
1.3895619 0 2.302
1.4053854 0 2.3100002
1.4077953 0 2.296
1.418723 0 2.296
1.4333867 0 2.302
1.4430879 0 2.3000002
1.4527702 0 2.2980001
1.4617965 0 2.2950001
1.4701525 0 2.2910001
1.4784704 0 2.2870002
1.4867502 0 2.283
1.4976159 0 2.283
1.4866772 0 2.25
1.4927273 0 2.243
1.5007216 0 2.2390001
1.4972025 0 2.2180002
1.5036802 0 2.2120001
1.5189997 0 2.2190001
1.5171535 0 2.2010002
1.5290171 0 2.2030001
1.5304173 0 2.1900001
1.5394334 0 2.1880002
1.5236382 0 2.151
1.5331627 0 2.1500001
1.5412419 0 2.1470001
1.5384533 0 2.1290002
1.5478585 0 2.128
1.565308 0 2.138
1.5762206 0 2.1390002
1.5864011 0 2.1390002
1.5973277 0 2.1400001
1.608264 0 2.141
1.6199659 0 2.1430001
1.6316867 0 2.1450002
1.6441919 0 2.148
1.6567258 0 2.151
1.6700633 0 2.1550002
1.688117 0 2.1650002
1.7243094 0 2.1980002
1.7679188 0 2.24
1.8238386 0 2.2970002
1.9058614 0 2.3860002
1.9766783 0 2.46
2.012635 0 2.49
2.0285513 0 2.4950001
2.0420616 0 2.4970002
2.053946 0 2.4970002
2.0650027 0 2.4960001
2.0752182 0 2.4940002
2.0854144 0 2.4920001
2.0955915 0 2.49
2.1040571 0 2.4860001
2.1133356 0 2.483
2.1217299 0 2.4790001
2.1257825 0 2.47
2.119365 0 2.4490001
2.1275401 0 2.4450002
2.1015553 0 2.4020002
2.1094687 0 2.398
2.1102686 0 2.3860002
2.1198459 0 2.3840001
2.1294048 0 2.3820002
2.1524251 0 2.3950002
2.1574991 0 2.388
2.1670482 0 2.3860002
2.1765783 0 2.3840001
2.1925135 0 2.3890002
2.2001936 0 2.3850002
2.2152541 0 2.3890002
2.2126436 0 2.3740001
2.2239425 0 2.3740001
2.2342999 0 2.3730001
2.2455938 0 2.3730001
2.2559371 0 2.3720002
2.2720053 0 2.3770001
2.2862003 0 2.3800001
0 -0 0
0 -0 0
0 -0 0
0 -0 0
0 -0 0
0 -0 0
-0 -0 0
-0 -0 0
-0 -0 0
-0 -0 0
-0 -0 0
-3.5900381 0 3.5890002
-3.5729566 0 3.5890002
-3.554884 0 3.5880001
-3.4885068 0 3.5380001
-3.4059243 0 3.4710002
-3.3532741 0 3.4340003
-3.2864003 0 3.3820002
-3.2064836 0 3.3160002
-3.1589484 0 3.2830002
-0 -0 0
-0 -0 0
-0 -0 0
-0 -0 0
-0 -0 0
-0 -0 0
-0 -0 0
-0 -0 0
-3.2279403 0 3.5110002
-3.2094009 0 3.5090001
-3.1917903 0 3.5080001
-3.1416056 0 3.4710002
-3.0917733 0 3.4340003
-3.0763247 0 3.4350002
-3.0956089 0 3.4750001
-3.0790703 0 3.4750001
-3.117172 0 3.5370002
-3.0819306 0 3.5160003
-3.1044269 0 3.5610001
-3.1004839 0 3.5760002
-3.1110568 0 3.6080003
-3.0955999 0 3.6100001
-3.0886514 0 3.6220002
-3.0705647 0 3.6210003
-3.056704 0 3.6250002
-3.0411279 0 3.6270001
-3.0246992 0 3.6280003
-3.008261 0 3.6290002
-2.9909892 0 3.6290002
-2.9737172 0 3.6290002
-2.9833295 0 3.6620002
-2.9675205 0 3.6640003
-2.9476664 0 3.6610003
-2.9358449 0 3.6680002
-2.919183 0 3.6690001
-2.9246562 0 3.6980002
-2.9353559 0 3.7340002
-2.9378998 0 3.7600002
-2.9363127 0 3.7810001
-2.9352977 0 3.8030002
-2.9501822 0 3.8460002
-2.9486487 0 3.8680003
-2.9476631 0 3.8910003
-2.9457057 0 3.9130001
-2.9270821 0 3.9130001
-2.9084585 0 3.9130001
-2.8898351 0 3.9130001
-2.8712113 0 3.9130001
-2.8365498 0 3.8910003
-2.78544 0 3.8460002
-2.7671354 0 3.8460002
-2.7331066 0 3.8240001
-2.6999974 0 3.8030002
-2.6818974 0 3.8030002
-2.6637971 0 3.8030002
-2.6603067 0 3.8240001
-2.6421065 0 3.8240001
-2.6390023 0 3.8460002
-2.6356888 0 3.8680003
-2.6172793 0 3.8680003
-2.6143234 0 3.8910003
-2.6104813 0 3.9130001
-2.6070921 0 3.9360001
-2.6034842 0 3.9590001
-2.6153259 0 4.006
-2.611814 0 4.0300002
-2.6087167 0 4.0550003
-2.6207075 0 4.1040001
-2.6170201 0 4.1290002
-2.6294503 0 4.1800003
-2.6095562 0 4.1800003
-2.5896618 0 4.1800003
-2.5697675 0 4.1800003
-2.5663438 0 4.2070003
-2.5463207 0 4.2070003
-2.5262978 0 4.2070003
-2.5062752 0 4.2070003
-2.5016177 0 4.2330003
-2.4814711 0 4.2330003
-2.4613247 0 4.2330003
-2.456749 0 4.2600002
-2.4364736 0 4.2600002
-2.4161985 0 4.2600002
-2.3959236 0 4.2600002
-2.3756485 0 4.2600002
-2.3703017 0 4.2870002
-2.3498981 0 4.2870002
-2.3294945 0 4.2870002
-2.3090909 0 4.2870002
-2.2886875 0 4.2870002
-2.2825696 0 4.3140001
-2.2767191 0 4.342
-2.2711222 0 4.3710003
-2.2503188 0 4.3710003
-2.2437971 0 4.3990002
-2.2375145 0 4.428
-2.2164397 0 4.428
-2.1953652 0 4.428
-2.1742904 0 4.428
-2.1532156 0 4.428
-2.1321411 0 4.428
-2.1110663 0 4.428
-2.0899918 0 4.428
-2.068917 0 4.428
-2.0478423 0 4.428
-2.0267677 0 4.428
-2.005693 0 4.428
-1.9976162 0 4.4570003
-1.9897065 0 4.487
-1.9815116 0 4.5170002
-1.9600132 0 4.5170002
-1.9518191 0 4.5480003
-1.956486 0 4.6100001
-1.9479736 0 4.6420002
-1.9391567 0 4.6740003
-1.9439793 0 4.7400002
-1.9347966 0 4.7730002
-1.9397215 0 4.842
-1.9305311 0 4.8770003
-1.9073193 0 4.8770003
-1.8705863 0 4.842
-1.834568 0 4.8080001
-1.8116847 0 4.8080001
-1.7757798 0 4.7730002
-1.7409426 0 4.7400002
-1.7183831 0 4.7400002
-1.6840172 0 4.7070003
-1.6732638 0 4.7400002
-1.6621965 0 4.7730002
-1.651502 0 4.8080001
-1.6401354 0 4.842
-1.6408025 0 4.9130001
-1.6292713 0 4.9490004
-1.6177214 0 4.9860001
-1.6058198 0 5.0230002
-1.5938809 0 5.0610003
-1.5697933 0 5.0610003
-1.545706 0 5.0610003
-1.5216187 0 5.0610003
-1.4975312 0 5.0610003
-0 -0 0
-0 -0 0
-0 -0 0
-0 -0 0
-0 -0 0
-0 -0 0
-0.69820142 0 2.6590002
-0.67703807 0 2.6260002
-0.66378057 0 2.6230001
-0.65080005 0 2.6210001
-0.637595 0 2.618
-0.62465733 0 2.6160002
-0.6122067 0 2.6160002
-0.5999853 0 2.6170001
-0.58775443 0 2.618
-0.57573384 0 2.6200001
-0.56326413 0 2.6200001
-0.55142516 0 2.6230001
-0.53955764 0 2.6260002
-0.52705944 0 2.6260002
-0.51534498 0 2.6300001
-0.50397485 0 2.6360002
-0.49236122 0 2.641
-0.48069999 0 2.6460001
-0.46881419 0 2.6500001
-0.46239924 0 2.6860001
-0.44928065 0 2.684
-0.43650639 0 2.684
-0.42341644 0 2.6820002
-0.41003922 0 2.6780002
-0.39670005 0 2.674
-0.38325542 0 2.6690001
-0.36944187 0 2.661
-0.35570449 0 2.6530001
-0.34243116 0 2.6480002
-0.32870722 0 2.6390002
-0.31530857 0 2.6320002
-0.30278179 0 2.6320002
-0.2887111 0 2.618
-0.27498475 0 2.6060002
-0.26177561 0 2.598
-0.24893066 0 2.5930002
-0.23622456 0 2.5890002
-0.22234574 0 2.5710001
-0.20888346 0 2.5560002
-0.19648753 0 2.5530002
-0.18173739 0 2.5170002
-0 -0 0
-0 -0 0
-0 -0 0
-0 -0 0
-0 -0 0
-0 -0 0
-0 -0 0
-0 -0 0
-0 -0 0
-0.033223301 0 1.35
-0.026798096 0 1.35
-0.020342708 0 1.348
-0.01391669 0 1.3470001
-0.0075001903 0 1.3460001
-0.0010932094 0 1.345
0.0053042527 0 1.3440001
0.011692195 0 1.3430001
0.01807062 0 1.342
0.024457749 0 1.342
0.030821897 0 1.3410001
0.037176523 0 1.34
0.043554131 0 1.34
0.049894486 0 1.3390001
0.05626734 0 1.3390001
0.06264019 0 1.3390001
0.069013044 0 1.3390001
0.075385898 0 1.3390001
0.081758745 0 1.3390001
0.088131599 0 1.3390001
0.094504453 0 1.3390001
0.10087731 0 1.3390001
0.10725015 0 1.3390001
0.11362301 0 1.3390001
0.11999586 0 1.3390001
0.12636872 0 1.3390001
0.13274157 0 1.3390001
0.1392183 0 1.34
0.14559591 0 1.34
0.15208694 0 1.3410001
0.15846932 0 1.3410001
0.16485168 0 1.3410001
0.17123406 0 1.3410001
0.17774887 0 1.342
0.184136 0 1.342
0.19052313 0 1.342
0.19691026 0 1.342
0.20329739 0 1.342
0.20984077 0 1.3430001
0.21623267 0 1.3430001
0.22262456 0 1.3430001
0.22901644 0 1.3430001
0.23540834 0 1.3430001
0.24198028 0 1.3440001
0.24837692 0 1.3440001
0.25477359 0 1.3440001
0.26117024 0 1.3440001
0.26756686 0 1.3440001
0.27416736 0 1.345
0.28077739 0 1.3460001
0.28739691 0 1.3470001
0.29424408 0 1.3490001
0.30088738 0 1.35
0.30754024 0 1.3510001
0.31443501 0 1.353
0.32111165 0 1.3540001
0.32803971 0 1.3560001
0.33498684 0 1.358
0.34170154 0 1.3590001
0.34842578 0 1.36
0.35515952 0 1.3610001
0.3619028 0 1.3620001
0.36865559 0 1.363
0.37514266 0 1.363
0.38162977 0 1.363
0.38783211 0 1.3620001
0 -0 0
0 -0 0
0 -0 0
0 -0 0
0 -0 0
0 -0 0
0 -0 0
1.0485427 0 3.2480001
1.062691 0 3.2440002
1.0668306 0 3.21
1.0821084 0 3.21
1.0908908 0 3.1910002
1.1026118 0 3.1810002
1.10721 0 3.1510003
1.1214945 0 3.1490002
1.1357601 0 3.1470001
1.1565886 0 3.1630001
1.1586779 0 3.1280003
1.1596836 0 3.0910001
1.1591973 0 3.0510001
1.1402495 0 2.9640002
1.1255363 0 2.8900001
1.1235224 0 2.8500001
1.1055675 0 2.7710001
1.1026063 0 2.7310002
1.0821075 0 2.6490002
1.0777717 0 2.608
1.0726277 0 2.5660002
1.0823036 0 2.5600002
1.0855094 0 2.539
1.0924062 0 2.5270002
1.1026849 0 2.523
1.1124839 0 2.5180001
1.1244681 0 2.5180001
1.1328416 0 2.5100002
1.1434195 0 2.5070002
0 -0 0
0 -0 0
0 -0 0
0 -0 0
0 -0 0
1.1801159 0 2.4350002
1.1931734 0 2.4380002
1.2062593 0 2.4410002
1.2218683 0 2.4490001
1.2325168 0 2.447
1.2446716 0 2.4480002
1.2583754 0 2.4520001
1.2721173 0 2.4560001
1.2832838 0 2.4550002
1.294968 0 2.4550002
1.3055879 0 2.4530001
1.3161888 0 2.4510002
1.3235199 0 2.4430001
1.3192981 0 2.414
1.3263773 0 2.4060001
1.3178109 0 2.3700001
1.3257259 0 2.3640001
1.3341495 0 2.3590002
1.3408142 0 2.3510001
1.3497034 0 2.3470001
1.3579745 0 2.342
1.3650289 0 2.335
1.3731954 0 2.3300002
1.3860673 0 2.3330002
1.3947753 0 2.329
1.4016346 0 2.322
1.4035602 0 2.3070002
1.4090216 0 2.2980001
1.418105 0 2.2950001
1.4340094 0 2.3030002
1.4437153 0 2.3010001
1.4534023 0 2.299
1.4624335 0 2.296
1.4707941 0 2.2920001
1.4797633 0 2.289
1.4880528 0 2.2850001
1.4982721 0 2.2840002
1.507821 0 2.2820001
1.4920619 0 2.2420001
1.5013918 0 2.24
1.4978775 0 2.2190001
1.50436 0 2.2130001
1.5114698 0 2.2080002
1.5171535 0 2.2010002
1.5304053 0 2.2050002
1.5318149 0 2.1920002
1.5436547 0 2.194
1.5512636 0 2.1900001
1.5345889 0 2.1520002
1.5433954 0 2.1500001
1.5550735 0 2.1520002
1.5565871 0 2.1400001
1.5660402 0 2.1390002
1.5762206 0 2.1390002
1.5864011 0 2.1390002
1.5958349 0 2.138
1.607513 0 2.1400001
1.618454 0 2.141
1.6309259 0 2.1440001
1.6434264 0 2.1470001
1.6559556 0 2.1500001
1.6685132 0 2.1530001
1.688117 0 2.1650002
1.7196025 0 2.1920002
1.7671297 0 2.2390001
1.8683031 0 2.3530002
1.9090564 0 2.3900001
1.9766783 0 2.46
2.0118268 0 2.4890001
2.0261121 0 2.4920001
2.040426 0 2.4950001
2.0523007 0 2.4950001
2.0633483 0 2.4940002
2.0743859 0 2.493
2.0845776 0 2.4910002
2.0947499 0 2.4890001
2.1040571 0 2.4860001
2.1133356 0 2.483
2.1217299 0 2.4790001
2.1283643 0 2.473
2.1202302 0 2.45
2.1275401 0 2.4450002
2.1330523 0 2.4380002
2.1402574 0 2.4330001
2.1491838 0 2.4300001
2.1571922 0 2.4260001
2.1669507 0 2.424
2.1766903 0 2.4220002
2.1864104 0 2.4200001
2.1961119 0 2.4180002
2.2048812 0 2.4150002
2.2127039 0 2.411
2.2204888 0 2.4070001
2.221745 0 2.3960001
2.2284882 0 2.391
2.2258162 0 2.3760002
2.2361829 0 2.375
2.2455938 0 2.3730001
2.2549858 0 2.3710001
2.2691379 0 2.3740001
2.2852397 0 2.3790002
0 -0 0
0 -0 0
0 -0 0
0 -0 0
0 -0 0
0 -0 0
-0 -0 0
-0 -0 0
-0 -0 0
-0 -0 0
-0 -0 0
-3.5950396 0 3.5940001
-3.577934 0 3.5940001
-3.5608287 0 3.5940001
-3.4875209 0 3.5370002
-3.404943 0 3.4700003
-3.3103085 0 3.3900001
-3.2232375 0 3.3170002
-3.151366 0 3.2590001
-3.1281574 0 3.2510002
-3.0925782 0 3.2300003
-0 -0 0
-0 -0 0
-0 -0 0
-0 -0 0
-0 -0 0
-0 -0 0
-0 -0 0
-3.2306986 0 3.5140002
-3.2121449 0 3.5120001
-3.19452 0 3.5110002
-3.1606126 0 3.4920001
-3.149395 0 3.4980001
-3.1345377 0 3.5000002
-3.1223338 0 3.5050001
-3.1100826 0 3.5100002
-3.1206973 0 3.5410001
-3.1099799 0 3.5480001
-3.0991962 0 3.5550001
-3.1022179 0 3.5780001
-3.0912247 0 3.5850003
-3.0758772 0 3.5870001
-3.0690382 0 3.5990002
-3.0468211 0 3.5930002
-3.0314071 0 3.5950003
-3.0159738 0 3.5970001
-2.9988542 0 3.5970001
-2.9825635 0 3.5980003
-2.9670875 0 3.6000001
-2.9737172 0 3.6290002
-2.9515572 0 3.6230001
-2.9359338 0 3.6250002
-2.9186809 0 3.6250002
-2.8958254 0 3.6180003
-2.9183877 0 3.6680002
-2.8946028 0 3.6600001
-2.9070559 0 3.6980002
-2.9175844 0 3.7340002
-2.9363127 0 3.7810001
-2.9352977 0 3.8030002
-2.9501822 0 3.8460002
-2.966182 0 3.8910003
-2.9817531 0 3.9360001
-2.9630201 0 3.9360001
-2.9614918 0 3.9590001
-2.9426494 0 3.9590001
-2.9238069 0 3.9590001
-2.888088 0 3.9360001
-2.8525877 0 3.9130001
-2.8180311 0 3.8910003
-2.782964 0 3.8680003
-2.7331066 0 3.8240001
-2.7149067 0 3.8240001
-2.6818974 0 3.8030002
-2.6637971 0 3.8030002
-2.6603067 0 3.8240001
-2.6421065 0 3.8240001
-2.6390023 0 3.8460002
-2.6356888 0 3.8680003
-2.6328423 0 3.8910003
-2.6291049 0 3.9130001
-2.6258254 0 3.9360001
-2.6070921 0 3.9360001
-2.6034842 0 3.9590001
-2.6003103 0 3.9830003
-2.611814 0 4.0300002
-2.6087167 0 4.0550003
-2.6207075 0 4.1040001
-2.6334994 0 4.1550002
-2.6294503 0 4.1800003
-2.6426439 0 4.2330003
-2.6224973 0 4.2330003
-2.6023505 0 4.2330003
-2.5986745 0 4.2600002
-2.5783994 0 4.2600002
-2.5581243 0 4.2600002
-2.5378494 0 4.2600002
-2.5175741 0 4.2600002
-2.497299 0 4.2600002
-2.4770241 0 4.2600002
-2.456749 0 4.2600002
-2.4364736 0 4.2600002
-2.4161985 0 4.2600002
-2.3959236 0 4.2600002
-2.3756485 0 4.2600002
-2.3553731 0 4.2600002
-2.3350983 0 4.2600002
-2.3001518 0 4.2330003
-2.280005 0 4.2330003
-2.2742732 0 4.2600002
-2.2539978 0 4.2600002
-2.24788 0 4.2870002
-2.2560539 0 4.342
-2.2503188 0 4.3710003
-2.2437971 0 4.3990002
-2.2375145 0 4.428
-2.2309558 0 4.4570003
-2.2097433 0 4.4570003
-2.1885304 0 4.4570003
-2.1673179 0 4.4570003
-2.1321411 0 4.428
-2.1110663 0 4.428
-2.0899918 0 4.428
-2.068917 0 4.428
-2.0478423 0 4.428
-2.0267677 0 4.428
-2.0188289 0 4.4570003
-2.0110619 0 4.487
-2.0030098 0 4.5170002
-1.9951106 0 4.5480003
-1.9734647 0 4.5480003
-1.9651228 0 4.579
-1.956486 0 4.6100001
-1.9479736 0 4.6420002
-1.9391567 0 4.6740003
-1.9304452 0 4.7070003
-1.9347966 0 4.7730002
-1.926101 0 4.8080001
-1.9166764 0 4.842
-1.9073193 0 4.8770003
-1.8705863 0 4.842
-1.834568 0 4.8080001
-1.7984965 0 4.7730002
-1.7635024 0 4.7400002
-1.7409426 0 4.7400002
-1.7064197 0 4.7070003
-1.6722108 0 4.6740003
-1.6616145 0 4.7070003
-1.6507043 0 4.7400002
-1.6394799 0 4.7730002
-1.6401354 0 4.842
-1.6287795 0 4.8770003
-1.6292713 0 4.9490004
-1.6177214 0 4.9860001
-1.593991 0 4.9860001
-1.5819134 0 5.0230002
-1.5697933 0 5.0610003
-1.545706 0 5.0610003
-1.5216187 0 5.0610003
-1.4975312 0 5.0610003
-0 -0 0
-0 -0 0
-0 -0 0
-0 -0 0
-0 -0 0
-0 -0 0
-0.68979877 0 2.6270001
-0.67652237 0 2.6240001
-0.66378057 0 2.6230001
-0.65080005 0 2.6210001
-0.6378386 0 2.6190002
-0.62489605 0 2.6170001
-0.61244071 0 2.6170001
-0.5999853 0 2.6170001
-0.58797896 0 2.6190002
-0.57595354 0 2.6210001
-0.56347913 0 2.6210001
-0.55184567 0 2.6250002
-0.54017401 0 2.6290002
-0.52705944 0 2.6260002
-0.51554096 0 2.631
-0.50435722 0 2.638
-0.49254769 0 2.6420002
-0.48069999 0 2.6460001
-0.47518301 0 2.6860001
-0.46257138 0 2.687
-0.44944808 0 2.6850002
-0.43650639 0 2.684
-0.42341644 0 2.6820002
-0.41019231 0 2.6790001
-0.39670005 0 2.674
-0.38325542 0 2.6690001
-0.36958075 0 2.6620002
-0.35516816 0 2.6490002
-0.34243116 0 2.6480002
-0.32858264 0 2.638
-0.31482935 0 2.628
-0.30278179 0 2.6320002
-0.2888214 0 2.6190002
-0.27498475 0 2.6060002
-0.26157412 0 2.5960002
-0.24883465 0 2.592
-0.23376101 0 2.562
-0.22139443 0 2.5600002
-0.20814796 0 2.5470002
-0.1944095 0 2.526
-0.18152077 0 2.5140002
-0 -0 0
-0 -0 0
-0 -0 0
-0 -0 0
-0 -0 0
-0 -0 0
-0 -0 0
-0 -0 0
-0 -0 0
-0.033247914 0 1.3510001
-0.026798096 0 1.35
-0.020357799 0 1.3490001
-0.013927021 0 1.348
-0.0075001903 0 1.3460001
-0.0010932094 0 1.345
0.0053042527 0 1.3440001
0.011692195 0 1.3430001
0.01807062 0 1.342
0.024457749 0 1.342
0.030821897 0 1.3410001
0.037176523 0 1.34
0.043554131 0 1.34
0.049894486 0 1.3390001
0.05626734 0 1.3390001
0.06264019 0 1.3390001
0.069013044 0 1.3390001
0.075385898 0 1.3390001
0.081758745 0 1.3390001
0.088131599 0 1.3390001
0.094575025 0 1.34
0.10095264 0 1.34
0.10733025 0 1.34
0.11370786 0 1.34
0.12008547 0 1.34
0.12646309 0 1.34
0.13284069 0 1.34
0.13932221 0 1.3410001
0.14570457 0 1.3410001
0.15208694 0 1.3410001
0.15846932 0 1.3410001
0.16497461 0 1.342
0.17136174 0 1.342
0.17774887 0 1.342
0.184136 0 1.342
0.19052313 0 1.342
0.19691026 0 1.342
0.20329739 0 1.342
0.20968452 0 1.342
0.21623267 0 1.3430001
0.22279032 0 1.3440001
0.22918698 0 1.3440001
0.23558363 0 1.3440001
0.24198028 0 1.3440001
0.24837692 0 1.3440001
0.25477359 0 1.3440001
0.26117024 0 1.3440001
0.26776594 0 1.345
0.27437121 0 1.3460001
0.28098598 0 1.3470001
0.28761026 0 1.348
0.29446217 0 1.35
0.30111027 0 1.3510001
0.30776787 0 1.3520001
0.3146674 0 1.3540001
0.32134879 0 1.355
0.32828164 0 1.3570001
0.33523351 0 1.3590001
0.34195295 0 1.36
0.34868199 0 1.3610001
0.3554205 0 1.3620001
0.36216849 0 1.363
0.36892611 0 1.3640001
0.37541792 0 1.3640001
0.38190979 0 1.3640001
0.38868633 0 1.365
0 -0 0
0 -0 0
0 -0 0
0 -0 0
0 -0 0
0 -0 0
1.0219517 0 3.2130001
1.0365982 0 3.2110002
1.0512254 0 3.2090001
1.0678277 0 3.2130001
1.0666015 0 3.164
1.0782417 0 3.154
1.0918664 0 3.1500001
1.1061559 0 3.1480002
1.12007 0 3.1450002
1.1339556 0 3.1420002
1.1459844 0 3.1340001
1.1590483 0 3.1290002
1.1503041 0 3.0660002
1.155398 0 3.0410001
1.1390954 0 2.9610002
1.1259258 0 2.891
1.119186 0 2.8390002
1.1071633 0 2.7750001
1.0989726 0 2.7220001
1.0947709 0 2.6800001
1.0831439 0 2.6210001
1.08266 0 2.5900002
1.0823036 0 2.5600002
1.0893573 0 2.5480001
1.0945675 0 2.5320001
1.1048702 0 2.5280001
1.1151347 0 2.5240002
1.1244681 0 2.5180001
1.1332929 0 2.5110002
1.1447878 0 2.5100002
0 -0 0
0 -0 0
0 -0 0
0 -0 0
0 -0 0
0 -0 0
0 -0 0
1.2087301 0 2.4460001
1.2203716 0 2.4460001
1.2320131 0 2.4460001
1.2431463 0 2.4450002
1.2537565 0 2.4430001
1.2700455 0 2.4520001
1.2811929 0 2.4510002
1.2918031 0 2.4490001
1.3029268 0 2.4480002
1.3135039 0 2.4460001
1.3218946 0 2.4400001
1.3192981 0 2.414
1.3280311 0 2.4090002
1.320591 0 2.375
1.3251652 0 2.3630002
1.3335838 0 2.358
1.3402439 0 2.3500001
1.3497034 0 2.3470001
1.3579745 0 2.342
1.3667827 0 2.3380001
1.3737848 0 2.3310001
1.3825026 0 2.3270001
1.3911822 0 2.3230002
1.3992201 0 2.3180001
1.4084272 0 2.3150001
1.4169927 0 2.3110001
1.4261379 0 2.3080001
1.4346321 0 2.3040001
1.4443427 0 2.302
1.4540347 0 2.3000002
1.4630705 0 2.2970002
1.4714359 0 2.2930002
1.4804099 0 2.2900002
1.4893553 0 2.2870002
1.498928 0 2.2850001
1.507821 0 2.2820001
1.5173512 0 2.2800002
1.5027324 0 2.2420001
1.514078 0 2.243
1.522714 0 2.24
1.5292679 0 2.2340002
1.5364538 0 2.2290001
1.5415102 0 2.2210002
1.5492854 0 2.217
1.5492834 0 2.2020001
1.5533886 0 2.1930001
1.5509902 0 2.1750002
1.5634955 0 2.1780002
1.5550735 0 2.1520002
1.5493133 0 2.1300001
1.5638437 0 2.1360002
1.5769575 0 2.1400001
1.5864011 0 2.1390002
1.5958349 0 2.138
1.6067618 0 2.1390002
1.6176981 0 2.1400001
1.6301652 0 2.1430001
1.6403646 0 2.1430001
1.6559556 0 2.1500001
1.6677383 0 2.1520002
1.688117 0 2.1650002
1.7196025 0 2.1920002
1.7671297 0 2.2390001
0 -0 0
1.9098551 0 2.391
1.9983736 0 2.4870002
2.0102103 0 2.4870002
2.0244861 0 2.49
2.0379725 0 2.4920001
2.0506556 0 2.493
2.0625207 0 2.493
2.0735538 0 2.4920001
2.0837407 0 2.49
2.0947499 0 2.4890001
2.1040571 0 2.4860001
2.1133356 0 2.483
2.1225855 0 2.48
2.1378314 0 2.4840002
2.1219611 0 2.4520001
2.1292803 0 2.447
2.1348021 0 2.4400001
2.1437762 0 2.437
2.1491838 0 2.4300001
2.1554139 0 2.424
2.1597991 0 2.4160001
2.1766903 0 2.4220002
2.1855071 0 2.4190001
2.1952035 0 2.4170001
2.203968 0 2.414
2.2127039 0 2.411
2.2204888 0 2.4070001
2.2245266 0 2.3990002
2.2312841 0 2.3940001
2.2323737 0 2.3830001
2.2418323 0 2.381
2.2503252 0 2.378
2.25879 0 2.375
2.2691379 0 2.3740001
2.2871606 0 2.381
0 -0 0
0 -0 0
0 -0 0
0 -0 0
0 -0 0
0 -0 0
-0 -0 0
-0 -0 0
-0 -0 0
-0 -0 0
-0 -0 0
-3.5580289 0 3.5570002
-3.5401042 0 3.5560002
-3.5221887 0 3.5550001
-3.4520245 0 3.5010002
-3.3637304 0 3.4280002
-3.3132379 0 3.3930001
-3.2212942 0 3.3150001
-3.1494322 0 3.2570002
-3.1243086 0 3.2470002
-3.0916207 0 3.2290001
-3.0724418 0 3.2250001
-0 -0 0
-0 -0 0
-0 -0 0
-0 -0 0
-0 -0 0
-3.2548163 0 3.5220001
-3.2334569 0 3.5170002
-3.2158034 0 3.5160003
-3.2008889 0 3.5180001
-3.1904809 0 3.5250001
-3.1746047 0 3.5260003
-3.1578228 0 3.5260003
-3.1241155 0 3.5070002
-3.1136267 0 3.5140002
-3.1224599 0 3.5430002
-3.1099799 0 3.5480001
-3.096581 0 3.5520003
-3.0796754 0 3.5520003
-3.0696681 0 3.5600002
-3.0750198 0 3.5860002
-3.0553942 0 3.5830002
-3.0468211 0 3.5930002
-3.0314071 0 3.5950003
-3.0159738 0 3.5970001
-2.9988542 0 3.5970001
-2.9825635 0 3.5980003
-2.9687362 0 3.6020002
-2.9532313 0 3.6040001
-2.9360783 0 3.6040001
-2.9245949 0 3.6110001
-2.9082139 0 3.6120002
-2.8918233 0 3.6130002
-2.9000881 0 3.6450002
-2.8906486 0 3.6550002
-2.9070559 0 3.6980002
-2.9183657 0 3.7350001
-2.9363127 0 3.7810001
-2.9515064 0 3.8240001
-2.9847009 0 3.8910003
-3.0004861 0 3.9360001
-2.999177 0 3.9590001
-2.9984019 0 3.9830003
-2.9966497 0 4.006
-2.9775834 0 4.006
-2.9415317 0 3.9830003
-2.9225748 0 3.9830003
-2.8861217 0 3.9590001
-2.8506219 0 3.9360001
-2.7995121 0 3.8910003
-2.7645545 0 3.8680003
-2.730526 0 3.8460002
-2.7122211 0 3.8460002
-2.6939163 0 3.8460002
-2.690917 0 3.8680003
-2.6883988 0 3.8910003
-2.6698799 0 3.8910003
-2.666352 0 3.9130001
-2.6632915 0 3.9360001
-2.6445582 0 3.9360001
-2.6411693 0 3.9590001
-2.6223269 0 3.9590001
-2.619267 0 3.9830003
-2.6153259 0 4.006
-2.611814 0 4.0300002
-2.6087167 0 4.0550003
-2.636672 0 4.1290002
-2.6493449 0 4.1800003
-2.6464348 0 4.2070003
-2.6594999 0 4.2600002
-2.6559522 0 4.2870002
-2.6355484 0 4.2870002
-2.615145 0 4.2870002
-2.5947413 0 4.2870002
-2.5581243 0 4.2600002
-2.5378494 0 4.2600002
-2.5175741 0 4.2600002
-2.497299 0 4.2600002
-2.4613247 0 4.2330003
-2.4411778 0 4.2330003
-2.4061608 0 4.2070003
-2.4008846 0 4.2330003
-2.3807383 0 4.2330003
-2.3605914 0 4.2330003
-2.3404448 0 4.2330003
-2.3060467 0 4.2070003
-2.2860236 0 4.2070003
-2.2660007 0 4.2070003
-2.2459781 0 4.2070003
-2.239712 0 4.2330003
-2.2337227 0 4.2600002
-2.2415054 0 4.3140001
-2.2353885 0 4.342
-2.2437971 0 4.3990002
-2.2375145 0 4.428
-2.2459722 0 4.487
-2.2246168 0 4.487
-2.2032614 0 4.487
-2.1819057 0 4.487
-2.1461051 0 4.4570003
-2.1248922 0 4.4570003
-2.1036797 0 4.4570003
-2.0824671 0 4.4570003
-2.0612543 0 4.4570003
-2.0537729 0 4.487
-2.0460064 0 4.5170002
-2.024508 0 4.5170002
-2.0167563 0 4.5480003
-2.0087094 0 4.579
-2.0003676 0 4.6100001
-1.9784268 0 4.6100001
-1.9700668 0 4.6420002
-1.9614021 0 4.6740003
-1.9528477 0 4.7070003
-1.9439793 0 4.7400002
-1.9347966 0 4.7730002
-1.926101 0 4.8080001
-1.9032178 0 4.8080001
-1.8803344 0 4.8080001
-1.8574512 0 4.8080001
-1.8212132 0 4.7730002
-1.7860619 0 4.7400002
-1.7512248 0 4.7070003
-1.7167016 0 4.6740003
-1.6828552 0 4.6420002
-1.6607622 0 4.6420002
-1.6499652 0 4.6740003
-1.639212 0 4.7070003
-1.6281447 0 4.7400002
-1.6286186 0 4.8080001
-1.6287795 0 4.8770003
-1.6174195 0 4.9130001
-1.6177214 0 4.9860001
-1.6058198 0 5.0230002
-1.5819134 0 5.0230002
-1.5697933 0 5.0610003
-1.545706 0 5.0610003
-1.5216187 0 5.0610003
-1.4975312 0 5.0610003
-0 -0 0
-0 -0 0
-0 -0 0
-0 -0 0
-0 -0 0
-0 -0 0
-0.6882233 0 2.6210001
-0.67626458 0 2.6230001
-0.66352755 0 2.6220002
-0.6505518 0 2.6200001
-0.637595 0 2.618
-0.62489605 0 2.6170001
-0.61244071 0 2.6170001
-0.5999853 0 2.6170001
-0.58797896 0 2.6190002
-0.57595354 0 2.6210001
-0.56412411 0 2.6240001
-0.55184567 0 2.6250002
-0.53996855 0 2.628
-0.52685875 0 2.6250002
-0.51514906 0 2.6290002
-0.50818104 0 2.6580002
-0.49664912 0 2.664
-0.48705846 0 2.6810002
-0.4750061 0 2.6850002
-0.46257138 0 2.687
-0.44944808 0 2.6850002
-0.43650639 0 2.684
-0.4235743 0 2.6830001
-0.41003922 0 2.6780002
-0.39684844 0 2.6750002
-0.38325542 0 2.6690001
-0.36971956 0 2.6630001
-0.35637486 0 2.6580002
-0.34307775 0 2.6530001
-0.32783532 0 2.6320002
-0.31470957 0 2.6270001
-0.30140132 0 2.6200001
-0.28893167 0 2.6200001
-0.27498475 0 2.6060002
-0.26167488 0 2.5970001
-0.24854666 0 2.5890002
-0.23485592 0 2.5740001
-0.22087555 0 2.5540001
-0.20569627 0 2.5170002
-0.1944095 0 2.526
-0.18137637 0 2.5120001
-0 -0 0
-0 -0 0
-0 -0 0
-0 -0 0
-0 -0 0
-0 -0 0
-0 -0 0
-0 -0 0
-0 -0 0
-0.033247914 0 1.3510001
-0.026798096 0 1.35
-0.020357799 0 1.3490001
-0.013927021 0 1.348
-0.0075057624 0 1.3470001
-0.0010932094 0 1.345
0.0053042527 0 1.3440001
0.011692195 0 1.3430001
0.01807062 0 1.342
0.024457749 0 1.342
0.030821897 0 1.3410001
0.037176523 0 1.34
0.043554131 0 1.34
0.049894486 0 1.3390001
0.05626734 0 1.3390001
0.06264019 0 1.3390001
0.069013044 0 1.3390001
0.075442187 0 1.34
0.081819803 0 1.34
0.088197418 0 1.34
0.094575025 0 1.34
0.10095264 0 1.34
0.10733025 0 1.34
0.11370786 0 1.34
0.12008547 0 1.34
0.12646309 0 1.34
0.13284069 0 1.34
0.13932221 0 1.3410001
0.14570457 0 1.3410001
0.15208694 0 1.3410001
0.15846932 0 1.3410001
0.16497461 0 1.342
0.17136174 0 1.342
0.17774887 0 1.342
0.184136 0 1.342
0.19052313 0 1.342
0.19691026 0 1.342
0.20329739 0 1.342
0.20984077 0 1.3430001
0.21623267 0 1.3430001
0.22279032 0 1.3440001
0.22918698 0 1.3440001
0.23558363 0 1.3440001
0.24198028 0 1.3440001
0.24856171 0 1.345
0.25496313 0 1.345
0.26136455 0 1.345
0.26796502 0 1.3460001
0.27457505 0 1.3470001
0.28119457 0 1.348
0.28782362 0 1.3490001
0.29446217 0 1.35
0.30111027 0 1.3510001
0.3079955 0 1.353
0.3146674 0 1.3540001
0.32158595 0 1.3560001
0.32852355 0 1.358
0.33548018 0 1.36
0.34220439 0 1.3610001
0.3489382 0 1.3620001
0.35568145 0 1.363
0.36243424 0 1.3640001
0.36919653 0 1.365
0.37569314 0 1.365
0.38218975 0 1.365
0.38868633 0 1.365
0 -0 0
0 -0 0
0 -0 0
0 -0 0
0 -0 0
0 -0 0
1.0127279 0 3.1840003
1.0272362 0 3.1820002
1.0417254 0 3.1800001
1.056528 0 3.1790001
1.0598595 0 3.1440001
1.0765324 0 3.1490002
1.0904799 0 3.1460001
1.1047503 0 3.1440001
1.1186453 0 3.141
1.132512 0 3.1380002
1.1456188 0 3.1330001
1.1479356 0 3.0990002
1.1495537 0 3.0640001
1.14248 0 3.0070002
1.1375566 0 2.9570003
1.1251469 0 2.8890002
1.1187917 0 2.8380001
1.1083603 0 2.7780001
1.0997801 0 2.7240002
1.093954 0 2.6780002
1.0897561 0 2.6370001
1.081406 0 2.5870001
1.0844175 0 2.5650001
1.0876471 0 2.5440001
1.0941353 0 2.5310001
1.1044332 0 2.5270002
1.1186692 0 2.5320001
1.1262543 0 2.5220001
1.1341956 0 2.513
1.1443316 0 2.5090001
0 -0 0
0 -0 0
0 -0 0
0 -0 0
0 -0 0
0 -0 0
0 -0 0
1.2072475 0 2.4430001
1.2193737 0 2.444
1.228991 0 2.4400001
1.2400956 0 2.4390001
1.250164 0 2.4360001
1.263312 0 2.4390001
1.2738748 0 2.437
1.2902206 0 2.4460001
1.3013301 0 2.4450002
1.3118927 0 2.4430001
1.3208112 0 2.4380002
1.3192981 0 2.414
1.3274798 0 2.4080002
1.3211471 0 2.3760002
1.3240435 0 2.3610001
1.3324528 0 2.3560002
1.3402439 0 2.3500001
1.3491284 0 2.3460002
1.3579745 0 2.342
1.3667827 0 2.3380001
1.3755528 0 2.3340001
1.3830966 0 2.3280001
1.391781 0 2.3240001
1.4004273 0 2.3200002
1.4059937 0 2.3110001
1.4139268 0 2.306
1.4267558 0 2.309
1.4352547 0 2.3050001
1.4449703 0 2.3030002
1.4540347 0 2.3000002
1.4630705 0 2.2970002
1.4714359 0 2.2930002
1.4804099 0 2.2900002
1.4893553 0 2.2870002
1.498928 0 2.2850001
1.507821 0 2.2820001
1.5166855 0 2.279
1.5255213 0 2.276
1.5343287 0 2.273
1.5233939 0 2.2410002
1.5306369 0 2.2360001
1.5371431 0 2.23
1.5477567 0 2.23
1.5520808 0 2.2210002
1.549987 0 2.2030001
1.5540969 0 2.194
1.5616866 0 2.1900001
1.561342 0 2.1750002
1.5543507 0 2.151
1.5631336 0 2.1490002
1.5638437 0 2.1360002
1.5725361 0 2.1340001
1.5871427 0 2.1400001
1.5913565 0 2.1320002
1.6052593 0 2.1370001
1.6161861 0 2.138
1.6278831 0 2.1400001
1.6403646 0 2.1430001
1.6536449 0 2.1470001
1.6677383 0 2.1520002
1.6873372 0 2.164
1.7211713 0 2.194
1.7671297 0 2.2390001
1.8683031 0 2.3530002
1.9098551 0 2.391
1.9983736 0 2.4870002
2.0077853 0 2.4840002
2.0228601 0 2.4880002
2.0363369 0 2.49
2.0490105 0 2.4910002
2.0608664 0 2.4910002
2.0727217 0 2.4910002
2.0837407 0 2.49
2.105691 0 2.5020001
2.1167526 0 2.5010002
2.1261024 0 2.4980001
2.1362798 0 2.4960001
2.1300857 0 2.4750001
2.1228263 0 2.4530001
2.1327612 0 2.4510002
2.1374269 0 2.4430001
2.1455355 0 2.4390001
2.1562593 0 2.4380002
2.1660843 0 2.4360001
2.1669507 0 2.424
2.1739941 0 2.4190001
2.1836998 0 2.4170001
2.1924789 0 2.414
2.1984901 0 2.4080002
2.2035263 0 2.401
2.2112637 0 2.3970001
2.2161813 0 2.3900001
2.2247601 0 2.3870001
2.235184 0 2.3860002
2.2437153 0 2.3830001
2.2493792 0 2.3770001
2.257839 0 2.3740001
2.2662704 0 2.3710001
2.2862003 0 2.3800001
2.2743595 0 2.3560002
0 -0 0
0 -0 0
0 -0 0
0 -0 0
0 -0 0
-0 -0 0
-0 -0 0
-0 -0 0
-0 -0 0
-0 -0 0
-3.5560281 0 3.5550001
-3.5391085 0 3.5550001
-3.5221887 0 3.5550001
-3.4510386 0 3.5000002
-3.3558803 0 3.4200001
-3.2858961 0 3.3650002
-3.2076898 0 3.3010001
-3.1465313 0 3.2540002
-3.1271954 0 3.2500002
-3.0925782 0 3.2300003
-3.0733943 0 3.2260001
-3.0940621 0 3.2640002
-0 -0 0
-0 -0 0
-3.2640665 0 3.4960001
-3.2492855 0 3.4980001
-3.2326369 0 3.4980001
-3.234376 0 3.5180001
-3.2176325 0 3.5180001
-3.2054384 0 3.5230002
-3.1922913 0 3.5270002
-3.178206 0 3.5300002
-3.1623006 0 3.5310001
-3.1258969 0 3.5090001
-3.1162848 0 3.5170002
-3.1224599 0 3.5430002
-3.1091034 0 3.5470002
-3.0948372 0 3.5500002
-3.0788083 0 3.5510001
-3.073117 0 3.5640001
-3.0733047 0 3.5840001
-3.0596578 0 3.5880001
-3.0468211 0 3.5930002
-3.0314071 0 3.5950003
-3.0159738 0 3.5970001
-2.9988542 0 3.5970001
-2.9825635 0 3.5980003
-2.9720328 0 3.6060002
-2.9548702 0 3.6060002
-2.9377079 0 3.6060002
-2.9229753 0 3.6090002
-2.9066036 0 3.6100001
-2.8902223 0 3.6110001
-2.8706496 0 3.6080003
-2.8906486 0 3.6550002
-2.9070559 0 3.6980002
-2.9214911 0 3.7390001
-2.953398 0 3.8030002
-2.9684868 0 3.8460002
-2.9847009 0 3.8910003
-3.0004861 0 3.9360001
-3.0173585 0 3.9830003
-3.0157161 0 4.006
-3.0146029 0 4.0300002
-2.9954224 0 4.0300002
-2.9762421 0 4.0300002
-2.9570615 0 4.0300002
-2.9203849 0 4.006
-2.8846614 0 3.9830003
-2.8318887 0 3.9360001
-2.7967169 0 3.9130001
-2.7624745 0 3.8910003
-2.7439554 0 3.8910003
-2.7254364 0 3.8910003
-2.7222228 0 3.9130001
-2.7194905 0 3.9360001
-2.7007573 0 3.9360001
-2.6976969 0 3.9590001
-2.6788542 0 3.9590001
-2.6761372 0 3.9830003
-2.6571805 0 3.9830003
-2.6382239 0 3.9830003
-2.6343918 0 4.006
-2.6153259 0 4.006
-2.611814 0 4.0300002
-2.6087167 0 4.0550003
-2.636672 0 4.1290002
-2.6493449 0 4.1800003
-2.6464348 0 4.2070003
-2.6594999 0 4.2600002
-2.6559522 0 4.2870002
-2.6355484 0 4.2870002
-2.615145 0 4.2870002
-2.5947413 0 4.2870002
-2.5581243 0 4.2600002
-2.5378494 0 4.2600002
-2.5016177 0 4.2330003
-2.4662292 0 4.2070003
-2.4462066 0 4.2070003
-2.4106128 0 4.1800003
-2.3907185 0 4.1800003
-2.3708239 0 4.1800003
-2.3661151 0 4.2070003
-2.3460922 0 4.2070003
-2.3260694 0 4.2070003
-2.2912467 0 4.1800003
-2.2713523 0 4.1800003
-2.2514579 0 4.1800003
-2.2315638 0 4.1800003
-2.2259552 0 4.2070003
-2.2195654 0 4.2330003
-2.2274766 0 4.2870002
-2.2353885 0 4.342
-2.2437971 0 4.3990002
-2.2521687 0 4.4570003
-2.2459722 0 4.487
-2.2394907 0 4.5170002
-2.2179923 0 4.5170002
-2.1964941 0 4.5170002
-2.1749959 0 4.5170002
-2.1391947 0 4.487
-2.1178393 0 4.487
-2.0964839 0 4.487
-2.0751283 0 4.487
-2.0675046 0 4.5170002
-2.0600481 0 4.5480003
-2.0522962 0 4.579
-2.0442495 0 4.6100001
-2.0363464 0 4.6420002
-2.0142531 0 4.6420002
-2.0058932 0 4.6740003
-1.9836477 0 4.6740003
-1.9752502 0 4.7070003
-1.9665388 0 4.7400002
-1.9439793 0 4.7400002
-1.9347966 0 4.7730002
-1.9120799 0 4.7730002
-1.8893633 0 4.7730002
-1.8537407 0 4.7400002
-1.8311812 0 4.7400002
-1.7960299 0 4.7070003
-1.7611927 0 4.6740003
-1.7389473 0 4.6740003
-1.7049484 0 4.6420002
-1.6712544 0 4.6100001
-1.6493136 0 4.6100001
-1.6386689 0 4.6420002
-1.6277198 0 4.6740003
-1.6168095 0 4.7070003
-1.6167631 0 4.7730002
-1.6170905 0 4.842
-1.6174195 0 4.9130001
-1.6057168 0 4.9490004
-1.6058198 0 5.0230002
-1.5819134 0 5.0230002
-1.5697933 0 5.0610003
-1.5341003 0 5.0230002
-1.5101938 0 5.0230002
-1.4862871 0 5.0230002
-0 -0 0
-0 -0 0
-0 -0 0
-0 -0 0
-0 -0 0
-0 -0 0
-0.68901104 0 2.6240001
-0.67600679 0 2.6220002
-0.66352755 0 2.6220002
-0.6505518 0 2.6200001
-0.637595 0 2.618
-0.62489605 0 2.6170001
-0.61244071 0 2.6170001
-0.5999853 0 2.6170001
-0.58797896 0 2.6190002
-0.57595354 0 2.6210001
-0.56390911 0 2.6230001
-0.55226606 0 2.6270001
-0.54058492 0 2.631
-0.526658 0 2.6240001
-0.51495308 0 2.628
-0.50798982 0 2.6570001
-0.4964627 0 2.6630001
-0.48705846 0 2.6810002
-0.47341388 0 2.6760001
-0.46102205 0 2.6780002
-0.44827634 0 2.6780002
-0.43650639 0 2.684
-0.42341644 0 2.6820002
-0.41019231 0 2.6790001
-0.39684844 0 2.6750002
-0.38325542 0 2.6690001
-0.36985838 0 2.664
-0.35650894 0 2.6590002
-0.34320706 0 2.654
-0.32858264 0 2.638
-0.31446999 0 2.6250002
-0.30174646 0 2.6230001
-0.28804943 0 2.6120002
-0.27509025 0 2.6070001
-0.26167488 0 2.5970001
-0.24729866 0 2.5760002
-0.2347647 0 2.5730002
-0.22122146 0 2.5580001
-0.20569627 0 2.5170002
-0.19417861 0 2.523
-0.18137637 0 2.5120001
-0 -0 0
-0 -0 0
-0 -0 0
-0 -0 0
-0 -0 0
-0 -0 0
-0 -0 0
-0 -0 0
-0 -0 0
-0.033272523 0 1.3520001
-0.026817946 0 1.3510001
-0.02037289 0 1.35
-0.013937353 0 1.3490001
-0.0075057624 0 1.3470001
-0.0010940222 0 1.3460001
0.0053042527 0 1.3440001
0.011692195 0 1.3430001
0.01807062 0 1.342
0.024439525 0 1.3410001
0.030821897 0 1.3410001
0.037176523 0 1.34
0.043554131 0 1.34
0.049931746 0 1.34
0.056309357 0 1.34
0.06264019 0 1.3390001
0.069013044 0 1.3390001
0.075442187 0 1.34
0.081819803 0 1.34
0.088197418 0 1.34
0.094575025 0 1.34
0.10095264 0 1.34
0.10733025 0 1.34
0.11370786 0 1.34
0.12008547 0 1.34
0.12646309 0 1.34
0.13284069 0 1.34
0.1392183 0 1.34
0.14570457 0 1.3410001
0.15208694 0 1.3410001
0.15846932 0 1.3410001
0.16485168 0 1.3410001
0.17123406 0 1.3410001
0.17761643 0 1.3410001
0.184136 0 1.342
0.19052313 0 1.342
0.19691026 0 1.342
0.20329739 0 1.342
0.20984077 0 1.3430001
0.21623267 0 1.3430001
0.22279032 0 1.3440001
0.22918698 0 1.3440001
0.23558363 0 1.3440001
0.24198028 0 1.3440001
0.24856171 0 1.345
0.25496313 0 1.345
0.26155889 0 1.3460001
0.26816413 0 1.3470001
0.27477887 0 1.348
0.28119457 0 1.348
0.28803697 0 1.35
0.2946803 0 1.3510001
0.30133316 0 1.3520001
0.30822316 0 1.3540001
0.31489977 0 1.355
0.32158595 0 1.3560001
0.32852355 0 1.358
0.33548018 0 1.36
0.34220439 0 1.3610001
0.3489382 0 1.3620001
0.35568145 0 1.363
0.36243424 0 1.3640001
0.36919653 0 1.365
0.37569314 0 1.365
0.38246977 0 1.3660001
0.38868633 0 1.365
0 -0 0
0 -0 0
0 -0 0
0 -0 0
0 -0 0
0 -0 0
1.0047761 0 3.1590002
1.0191655 0 3.1570001
1.0335357 0 3.1550002
1.0458928 0 3.1470001
1.0595224 0 3.1430001
1.0751649 0 3.1450002
1.08944 0 3.1430001
1.1036961 0 3.141
1.117577 0 3.1380002
1.1314293 0 3.1350002
1.1452531 0 3.1320002
1.1471947 0 3.0970001
1.1484281 0 3.0610001
1.1409603 0 3.0030003
1.1364025 0 2.9540002
1.124368 0 2.8870001
1.1183975 0 2.8370001
1.1087592 0 2.779
1.1001838 0 2.7250001
1.0943624 0 2.6790001
1.0893428 0 2.6360002
1.083078 0 2.5910001
1.0831491 0 2.562
1.0902123 0 2.5500002
1.0928384 0 2.5280001
1.1074926 0 2.5340002
1.1129256 0 2.5190001
1.1213421 0 2.5110002
1.1337442 0 2.5120001
1.1411389 0 2.5020001
1.1502819 0 2.4960001
0 -0 0
0 -0 0
0 -0 0
0 -0 0
0 -0 0
0 -0 0
0 -0 0
0 -0 0
1.2294948 0 2.4410002
1.2400956 0 2.4390001
1.2475982 0 2.4310002
1.2555424 0 2.424
1.2660339 0 2.4220002
1.2759787 0 2.4190001
1.285895 0 2.4160001
1.2963197 0 2.414
1.3088925 0 2.4160001
1.3160192 0 2.4080002
1.3170055 0 2.3890002
1.3217032 0 2.3770001
1.322922 0 2.3590002
1.3318871 0 2.355
1.3396738 0 2.3490002
1.3485532 0 2.345
1.3573947 0 2.3410001
1.3661981 0 2.3370001
1.3749635 0 2.3330002
1.3830966 0 2.3280001
1.391781 0 2.3240001
1.401031 0 2.3210001
1.406602 0 2.312
1.4188321 0 2.3140001
1.4273738 0 2.3100002
1.4358773 0 2.306
1.4449703 0 2.3030002
1.4534023 0 2.299
1.4624335 0 2.296
1.4707941 0 2.2920001
1.4797633 0 2.289
1.488704 0 2.286
1.4982721 0 2.2840002
1.5071603 0 2.2810001
1.5160201 0 2.2780001
1.5255213 0 2.276
1.5343287 0 2.273
1.5431076 0 2.2700002
1.5518578 0 2.2670002
1.5605795 0 2.2640002
1.5477567 0 2.23
1.5506831 0 2.2190001
1.5485799 0 2.2010002
1.5540969 0 2.194
1.5616866 0 2.1900001
1.5620598 0 2.1760001
1.5543507 0 2.151
1.5624061 0 2.148
1.5682366 0 2.1420002
1.5769575 0 2.1400001
1.5856593 0 2.138
1.5958349 0 2.138
1.6060104 0 2.138
1.6169422 0 2.1390002
1.6294045 0 2.1420002
1.6418957 0 2.1450002
1.6544151 0 2.148
1.6685132 0 2.1530001
1.684998 0 2.161
1.7203869 0 2.1930001
1.7671297 0 2.2390001
1.8492467 0 2.329
1.9122515 0 2.3940001
1.9750713 0 2.4580002
2.0061688 0 2.4820001
2.0204208 0 2.4850001
2.0347013 0 2.4880002
2.0473652 0 2.4890001
2.0600388 0 2.49
2.0827067 0 2.503
2.0954566 0 2.5040002
2.1082158 0 2.5050001
2.1201379 0 2.5050001
2.130358 0 2.503
2.1414151 0 2.5020001
2.1300857 0 2.4750001
2.1323459 0 2.4640002
2.1371119 0 2.4560001
2.1418016 0 2.4480002
2.1420169 0 2.4350002
2.1491838 0 2.4300001
2.1571922 0 2.4260001
2.1651628 0 2.4220002
2.1739941 0 2.4190001
2.1855071 0 2.4190001
2.1952035 0 2.4170001
2.203968 0 2.414
2.2117863 0 2.4100001
2.2260239 0 2.4130001
2.2152541 0 2.3890002
2.2238281 0 2.3860002
2.2333105 0 2.3840001
2.242774 0 2.3820002
2.2597885 0 2.388
2.268301 0 2.3850002
2.2767847 0 2.3820002
2.2852397 0 2.3790002
2.2560177 0 2.3370001
0 -0 0
0 -0 0
0 -0 0
0 -0 0
0 -0 0
-0 -0 0
-0 -0 0
-0 -0 0
-0 -0 0
-0 -0 0
-3.5180173 0 3.5170002
-3.5012784 0 3.5170002
