# .PCD v0.7 - Point Cloud Data file format
VERSION 0.7
FIELDS x y z
SIZE 4 4 4
TYPE F F F
COUNT 1 1 1
WIDTH 2403
HEIGHT 1
VIEWPOINT 0 0 0 1 0 0 0
POINTS 2403
DATA ascii
2.3082771 0 3.3720002
2.3298404 0 3.3800001
2.3146946 0 3.3350003
2.3340611 0 3.3400002
2.314075 0 3.2890003
2.3339787 0 3.2950001
2.3539395 0 3.3010001
2.3825719 0 3.3190002
2.4063172 0 3.3300002
2.4250753 0 3.3340001
2.4409432 0 3.3340001
2.45239 0 3.3280001
2.4660044 0 3.325
2.4818292 0 3.325
2.4931474 0 3.3190002
2.4870219 0 3.2900002
2.5026801 0 3.2900002
2.519104 0 3.2910001
2.5301461 0 3.2850001
0 -0 0
0 -0 0
0 -0 0
0 -0 0
0 -0 0
0 -0 0
0 -0 0
0 -0 0
0 -0 0
0 -0 0
0 -0 0
0 -0 0
0 -0 0
0 -0 0
0 -0 0
0 -0 0
0 -0 0
0 -0 0
0 -0 0
0 -0 0
0 -0 0
0 -0 0
0 -0 0
0 -0 0
0 -0 0
0 -0 0
0 -0 0
0 -0 0
0 -0 0
0 -0 0
0 -0 0
0 -0 0
0 -0 0
0 -0 0
0 -0 0
0 -0 0
0 -0 0
0 -0 0
0 -0 0
0 -0 0
0 -0 0
0 -0 0
0 -0 0
0 -0 0
0 -0 0
0 -0 0
-0 -0 0
-0 -0 0
-0 -0 0
-0 -0 0
-0 -0 0
-0 -0 0
-0 -0 0
-0 -0 0
-0 -0 0
-0 -0 0
-0 -0 0
-0 -0 0
-0 -0 0
-0 -0 0
-0.99575275 0 1.0400001
-0.9917556 0 1.041
-0.98869699 0 1.0430001
-0.98656237 0 1.046
-0.98439926 0 1.049
-0.98220766 0 1.052
-0.98091632 0 1.056
-0.97958696 0 1.0600001
-0.97821945 0 1.064
-0.97681403 0 1.0680001
-0.97537035 0 1.072
-0.9738887 0 1.0760001
-0.9705683 0 1.0780001
-0.96722877 0 1.08
-0.96387017 0 1.082
-0 -0 0
-0 -0 0
-0 -0 0
-0 -0 0
-0.95459533 0 1.1010001
-0.95107973 0 1.103
-0.94583011 0 1.103
-0.93972766 0 1.102
-0.93448281 0 1.102
-0.92839479 0 1.1010001
-0.92147774 0 1.0990001
-0.91541338 0 1.098
-0.90852964 0 1.0960001
-0.90166503 0 1.0940001
-0.8956387 0 1.0930001
-0.89043665 0 1.0930001
-0.88523465 0 1.0930001
-0.8800326 0 1.0930001
-0.87563097 0 1.0940001
-0.87121981 0 1.095
-0.86679912 0 1.0960001
-0.86315501 0 1.098
-0.85949194 0 1.1
-0.85580975 0 1.102
-0.8521086 0 1.1040001
-0.84838837 0 1.1060001
-0.84464908 0 1.108
-0.84164828 0 1.1110001
-0.83861905 0 1.1140001
-0.83481312 0 1.1160001
-0.83173144 0 1.1190001
-0.82788271 0 1.1210001
-0.82328123 0 1.1220001
-0.81794113 0 1.1220001
-0 -0 0
-0 -0 0
-0 -0 0
-0 -0 0
-0 -0 0
-0 -0 0
-0 -0 0
-0 -0 0
-1.372336 0 2
-1.365543 0 2.0040002
-1.3573583 0 2.006
-1.3491548 0 2.0080001
-1.3609462 0 2.0400002
-1.355211 0 2.046
-1.3619136 0 2.0710001
-1.3540155 0 2.0740001
-1.3655314 0 2.1070001
-1.3619367 0 2.1170001
-1.368464 0 2.1430001
-1.3595322 0 2.1450002
-1.3556138 0 2.1550002
-1.3466059 0 2.1570001
-1.3629799 0 2.2
-1.3494353 0 2.1950002
-1.3432586 0 2.2020001
-1.3509361 0 2.2320001
-1.3559259 0 2.2580001
-1.3529239 0 2.2710001
-1.3651634 0 2.3100002
-1.3565141 0 2.3140001
-1.3617817 0 2.342
-1.3546722 0 2.3490002
-1.3589346 0 2.3760002
-1.3544323 0 2.388
-1.3621894 0 2.4220002
-1.3668344 0 2.4510002
-1.3712032 0 2.48
-1.3648814 0 2.49
-1.3698754 0 2.5210001
-1.3611087 0 2.5270002
-1.3490818 0 2.5270002
-1.3566315 0 2.5640001
-1.3585857 0 2.5910001
-1.359244 0 2.6160002
-1.3673865 0 2.6560001
-1.3741281 0 2.6940002
-1.376971 0 2.7250001
-1.3790181 0 2.7550001
-1.3812754 0 2.786
-1.3807825 0 2.812
-1.3785833 0 2.835
-1.369424 0 2.8440001
-1.3625628 0 2.858
-1.3503764 0 2.8610001
-1.3545147 0 2.8990002
-1.3573662 0 2.9350002
-1.361706 0 2.9750001
-1.3783479 0 3.0430002
-1.3907567 0 3.1030002
-1.3963865 0 3.1490002
-1.4007009 0 3.1930001
-1.3868059 0 3.1960001
-1.3728824 0 3.1990001
-1.3644474 0 3.2150002
-1.3533423 0 3.2250001
-1.3392378 0 3.2280002
-1.3242846 0 3.2290001
-1.3089163 0 3.2290001
-1.2987561 0 3.2420001
-1.2845137 0 3.2450001
-1.2698516 0 3.2470002
-1.2578746 0 3.256
-1.2404702 0 3.2510002
-1.2253741 0 3.2520001
-1.2106407 0 3.2540002
-1.1962553 0 3.2570002
-1.1818415 0 3.2600002
-1.1666837 0 3.2610002
-1.1511631 0 3.2610002
-1.1391252 0 3.2710001
-1.1228702 0 3.2690001
-1.1008759 0 3.2500002
-1.0860757 0 3.2520001
-1.0719149 0 3.256
-1.0460358 0 3.2240002
-1.0358065 0 3.2400002
-1.0210159 0 3.2420001
-1.0099282 0 3.256
-0.99382085 0 3.2540002
-0.97833377 0 3.2540002
-0.96225476 0 3.2520001
-0.94648606 0 3.2510002
-0.92729038 0 3.2380002
-0.9118793 0 3.2380002
-0.88760889 0 3.2060001
-0.85575223 0 3.1450002
-0.81378245 0 3.0440001
-0.76778519 0 2.924
-0.73221177 0 2.8400002
-0.7004745 0 2.7680001
-0.68283111 0 2.7500002
-0.66194928 0 2.7180002
-0.6475805 0 2.7120001
-0.624376 0 2.6680002
-0.61144853 0 2.6670001
-0.59740812 0 2.661
-0.58430392 0 2.6590002
-0.57143366 0 2.6580002
-0.56025469 0 2.6650002
-0.54777634 0 2.6660001
-0.53528845 0 2.6670001
-0.52337891 0 2.6710002
-0.51104885 0 2.6730001
-0.49869987 0 2.6750002
-0.48524174 0 2.6710002
-0.47323698 0 2.6750002
-0.46102205 0 2.6780002
-0.44877851 0 2.6810002
-0.43601853 0 2.6810002
-0.42483729 0 2.6910002
-0.41187656 0 2.6900001
-0.39862868 0 2.687
-0.38555294 0 2.6850002
-0.37235746 0 2.6820002
-0.35945863 0 2.6810002
-0.34553477 0 2.6720002
-0.33306673 0 2.674
-0.32165787 0 2.6850002
-0.30910891 0 2.687
-0.29665121 0 2.6900001
-0.28416497 0 2.6930001
-0.2715494 0 2.6950002
-0.25824276 0 2.6900001
-0.24562244 0 2.6920002
-0.23289657 0 2.6930001
-0.22007948 0 2.6930001
-0.20726238 0 2.6930001
-0.19437309 0 2.6920002
-0.18149331 0 2.6910002
-0.16856034 0 2.6890001
-0.15558852 0 2.6860001
-0.14269841 0 2.684
-0.12977894 0 2.6810002
-0.11688801 0 2.6780002
-0.10406452 0 2.6760001
-0.091260076 0 2.674
-0.078474678 0 2.6720002
-0.065708309 0 2.6700001
-0.052960981 0 2.6680002
-0.040232684 0 2.6660001
-0.027533764 0 2.6650002
-0.014861074 0 2.6670001
-0.0021685374 0 2.6680002
0.010533519 0 2.6690001
0.02358463 0 2.7090001
0.036962632 0 2.7450001
0.050136566 0 2.7510002
0.063965209 0 2.7830002
0.078015208 0 2.812
0.09338136 0 2.8730001
0.10962627 0 2.9420002
0.12724234 0 3.0280001
0.14581738 0 3.1170001
0.16389953 0 3.1800001
0.18201835 0 3.233
0.19691707 0 3.2250001
0.21483311 0 3.2640002
0.2294503 0 3.2510002
0.2449985 0 3.2520001
0.25999552 0 3.2460001
0.27875397 0 3.2850001
0.29456788 0 3.2870002
0.3104952 0 3.2900002
0.32754156 0 3.3040001
0.34337053 0 3.3050001
0.35942632 0 3.3080001
0.37539732 0 3.3100002
0.39162365 0 3.3140001
0.40739632 0 3.3140001
0.42304134 0 3.3130002
0.43907419 0 3.3150001
0.4548516 0 3.3150001
0.47091299 0 3.3170002
0.48699346 0 3.3190002
0.50339586 0 3.3230002
0.51905519 0 3.3220003
0.53502697 0 3.3230002
0.55133975 0 3.3260002
0.56563479 0 3.3170002
0.58072066 0 3.3130002
0.59612852 0 3.3110001
0.60652757 0 3.2820001
0.62120014 0 3.2770002
0.63504785 0 3.2680001
0.64701807 0 3.2500002
0.66187465 0 3.2470002
0.67127907 0 3.2180002
0.68659478 0 3.2180002
0.69645756 0 3.1930001
0.71076292 0 3.1890001
0.72116023 0 3.1680002
0.73484367 0 3.1620002
0.74467546 0 3.1400001
0.75986189 0 3.141
0.77604461 0 3.1460001
0.79277772 0 3.1530001
0.8085528 0 3.1560001
0.82435632 0 3.1590002
0.83912557 0 3.1580002
0.85767204 0 3.1710002
0.87469071 0 3.1780002
0.89037615 0 3.1800001
0.91490787 0 3.2130001
0.93164742 0 3.2180002
0.94872886 0 3.2240002
0.9676615 0 3.2360001
0.98458189 0 3.2410002
1.0071038 0 3.2640002
1.0173123 0 3.2470002
1.0454888 0 3.2870002
1.0624243 0 3.2910001
1.083329 0 3.3070002
1.1007301 0 3.3120003
1.118853 0 3.3190002
1.1343075 0 3.3180001
1.1514858 0 3.3220003
1.1672966 0 3.3220003
1.1827512 0 3.3210001
1.1974744 0 3.3180001
1.2052217 0 3.2960002
1.2197974 0 3.2930002
1.2339694 0 3.2890003
1.2477235 0 3.2840002
1.2618145 0 3.2800002
1.2766464 0 3.2780001
1.2914594 0 3.2760003
1.3074502 0 3.2770002
1.3238542 0 3.279
1.3398689 0 3.2800002
1.357546 0 3.2850001
1.3752708 0 3.2900002
1.3917748 0 3.2920001
1.4159935 0 3.3120003
1.432189 0 3.3130002
1.4466457 0 3.3100002
1.462841 0 3.3110001
1.478153 0 3.3100002
1.493004 0 3.3080001
1.508292 0 3.3070002
1.5240314 0 3.3070002
1.5393052 0 3.3060002
1.5550398 0 3.3060002
1.5717247 0 3.3080001
1.5884285 0 3.3100002
1.6046668 0 3.3110001
1.6204252 0 3.3110001
1.6431019 0 3.325
1.659426 0 3.3260002
1.674752 0 3.325
1.6895603 0 3.3230002
1.7038361 0 3.3200002
1.712386 0 3.3060002
1.7281207 0 3.3060002
1.7406902 0 3.3000002
1.7760892 0 3.3370001
1.7930455 0 3.3390002
1.8273568 0 3.3730001
1.8445035 0 3.3750002
1.8616691 0 3.3770001
1.8899744 0 3.3990002
1.9072733 0 3.4010003
1.9234601 0 3.4010003
1.9390763 0 3.4000001
1.9552584 0 3.4000001
1.9720204 0 3.4010003
1.9893761 0 3.4030001
2.0055726 0 3.4030001
2.0217688 0 3.4030001
2.0373662 0 3.4020002
2.0523503 0 3.4000001
2.067924 0 3.3990002
2.083488 0 3.3980002
2.0984247 0 3.3960001
2.1139653 0 3.3950002
2.1301231 0 3.3950002
2.1456492 0 3.3940001
2.1624398 0 3.3950002
2.1785979 0 3.3950002
2.194756 0 3.3950002
2.2330561 0 3.4290001
2.2500319 0 3.4300001
2.2676783 0 3.4320002
2.2939954 0 3.4470003
2.3063793 0 3.4410002
2.3160062 0 3.4310002
2.3241782 0 3.4190001
2.3240216 0 3.3950002
2.333287 0 3.3850002
2.3362105 0 3.3660002
2.3319645 0 3.3370001
2.345736 0 3.3340001
2.359479 0 3.3310001
2.3788979 0 3.3360002
2.3947754 0 3.3360002
2.4048719 0 3.3280001
2.4272575 0 3.3370001
2.4416757 0 3.3350003
2.4553375 0 3.3320003
2.4704542 0 3.3310001
2.4810829 0 3.3240001
2.4923961 0 3.3180001
2.4885335 0 3.2920001
2.5049622 0 3.2930002
2.5221658 0 3.2950001
2.5547929 0 3.3170002
0 -0 0
0 -0 0
0 -0 0
0 -0 0
0 -0 0
0 -0 0
0 -0 0
0 -0 0
0 -0 0
0 -0 0
2.8970754 0 3.5220001
2.911356 0 3.5190001
2.8906605 0 3.4740002
0 -0 0
0 -0 0
0 -0 0
0 -0 0
0 -0 0
0 -0 0
0 -0 0
0 -0 0
0 -0 0
0 -0 0
0 -0 0
0 -0 0
0 -0 0
0 -0 0
0 -0 0
0 -0 0
0 -0 0
0 -0 0
0 -0 0
0 -0 0
0 -0 0
0 -0 0
0 -0 0
0 -0 0
0 -0 0
0 -0 0
0 -0 0
0 -0 0
0 -0 0
0 -0 0
0 -0 0
0 -0 0
0 -0 0
-0 -0 0
-0 -0 0
-0 -0 0
-0 -0 0
-0 -0 0
-0 -0 0
-0 -0 0
-0 -0 0
-0 -0 0
-0 -0 0
-0 -0 0
-0 -0 0
-0 -0 0
-0 -0 0
-0.99671012 0 1.041
-0.99270833 0 1.0420001
-0.98964483 0 1.044
-0.98750561 0 1.0470001
-0.98533773 0 1.0500001
-0.98407495 0 1.054
-0.98184526 0 1.057
-0.98051119 0 1.0610001
-0.98005831 0 1.0660001
-0.97772855 0 1.069
-0.97628027 0 1.0730001
-0.97479373 0 1.077
-0.97146857 0 1.079
-0.96722877 0 1.08
-0 -0 0
-0 -0 0
-0 -0 0
-0 -0 0
-0 -0 0
-0.95546228 0 1.102
-0.95194203 0 1.1040001
-0.94668764 0 1.1040001
-0.94058049 0 1.103
-0.93533081 0 1.103
-0.92923796 0 1.102
-0.92231613 0 1.1
-0.91541338 0 1.098
-0.90852964 0 1.0960001
-0.90248913 0 1.095
-0.89645821 0 1.0940001
-0.89125139 0 1.0940001
-0.88604462 0 1.0940001
-0.8808378 0 1.0940001
-0.87643135 0 1.095
-0.87201548 0 1.0960001
-0.86758995 0 1.097
-0.86394119 0 1.0990001
-0.8602733 0 1.1010001
-0.85658634 0 1.103
-0.85288036 0 1.105
-0.84915537 0 1.107
-0.84541142 0 1.1090001
-0.84164828 0 1.1110001
-0.83861905 0 1.1140001
-0.83556116 0 1.1170001
-0.83173144 0 1.1190001
-0.82788271 0 1.1210001
-0.82328123 0 1.1220001
-0.81794113 0 1.1220001
-0 -0 0
-0 -0 0
-0 -0 0
-0 -0 0
-0 -0 0
-0 -0 0
-0 -0 0
-1.3811641 0 1.9990001
-1.3785115 0 2.0090001
-1.3716756 0 2.013
-1.3654782 0 2.0180001
-1.3498266 0 2.0090001
-1.360279 0 2.039
-1.3558735 0 2.0470002
-1.3619136 0 2.0710001
-1.3625026 0 2.0870001
-1.3668277 0 2.1090002
-1.3664401 0 2.1240001
-1.368464 0 2.1430001
-1.3588984 0 2.1440001
-1.3543557 0 2.1530001
-1.3453574 0 2.1550002
-1.3555455 0 2.1880002
-1.3482057 0 2.1930001
-1.3444785 0 2.204
-1.3569885 0 2.2420001
-1.3553255 0 2.2570002
-1.3511367 0 2.2680001
-1.3462521 0 2.2780001
-1.3571002 0 2.3150001
-1.3431751 0 2.3100002
-1.3540953 0 2.348
-1.3589346 0 2.3760002
-1.3618057 0 2.401
-1.3627518 0 2.4230001
-1.3662766 0 2.45
-1.3739678 0 2.4850001
-1.3648814 0 2.49
-1.370962 0 2.523
-1.3594928 0 2.5240002
-1.3485478 0 2.526
-1.3566315 0 2.5640001
-1.3585857 0 2.5910001
-1.3576852 0 2.6130002
-1.365842 0 2.6530001
-1.3731079 0 2.6920002
-1.3764657 0 2.7240002
-1.3780168 0 2.753
-1.3773091 0 2.7780001
-1.3807825 0 2.812
-1.3746932 0 2.8270001
-1.369424 0 2.8440001
-1.3763885 0 2.8870001
-1.3654802 0 2.8930001
-1.3535801 0 2.8970001
-1.3573662 0 2.9350002
-1.361706 0 2.9750001
-1.3783479 0 3.0430002
-1.3916532 0 3.1050003
-1.39683 0 3.1500001
-1.4007009 0 3.1930001
-1.3868059 0 3.1960001
-1.3780323 0 3.2110002
-1.359779 0 3.2040002
-1.3541815 0 3.2270002
-1.3392378 0 3.2280002
-1.3242846 0 3.2290001
-1.3133755 0 3.2400002
-1.2987561 0 3.2420001
-1.2845137 0 3.2450001
-1.2694603 0 3.2460001
-1.2559431 0 3.2510002
-1.2400887 0 3.2500002
-1.2249973 0 3.2510002
-1.2102686 0 3.2530003
-1.1955208 0 3.2550001
-1.1811165 0 3.2580001
-1.1659681 0 3.2590001
-1.150104 0 3.2580001
-1.1380805 0 3.2680001
-1.1218398 0 3.2660003
-1.1012145 0 3.2510002
-1.0860757 0 3.2520001
-1.0722442 0 3.2570002
-1.0440891 0 3.2180002
-1.0265354 0 3.2110002
-1.0106231 0 3.2090001
-0.99566025 0 3.21
-0.9812988 0 3.2130001
-0.9693141 0 3.2240002
-0.95840812 0 3.2390001
-0.94706839 0 3.2530003
-0.92729038 0 3.2380002
-0.91131604 0 3.2360001
-0.88927007 0 3.2120001
-0.85548007 0 3.1440001
-0.81351513 0 3.0430002
-0.76804781 0 2.9250002
-0.73221177 0 2.8400002
-0.70806634 0 2.7980001
-0.68158954 0 2.7450001
-0.66146219 0 2.7160001
-0.64805812 0 2.7140002
-0.62624812 0 2.6760001
-0.61305338 0 2.674
-0.59740812 0 2.661
-0.58408421 0 2.6580002
-0.57143366 0 2.6580002
-0.56004447 0 2.664
-0.5479818 0 2.6670001
-0.5354892 0 2.6680002
-0.52357483 0 2.6720002
-0.5108577 0 2.6720002
-0.49888629 0 2.6760001
-0.48778513 0 2.6850002
-0.47482917 0 2.684
-0.46239924 0 2.6860001
-0.44978282 0 2.687
-0.43731958 0 2.6890001
-0.4246794 0 2.6900001
-0.41157037 0 2.6880002
-0.39833197 0 2.6850002
-0.38540933 0 2.684
-0.37221861 0 2.6810002
-0.35959268 0 2.6820002
-0.34540546 0 2.6710002
-0.33418775 0 2.6830001
-0.32165787 0 2.6850002
-0.30922398 0 2.6880002
-0.29665121 0 2.6900001
-0.28416497 0 2.6930001
-0.27144864 0 2.6940002
-0.25814676 0 2.6890001
-0.2455312 0 2.6910002
-0.23281008 0 2.6920002
-0.21999776 0 2.6920002
-0.20718543 0 2.6920002
-0.19430089 0 2.6910002
-0.18135841 0 2.6890001
-0.16843498 0 2.687
-0.15547267 0 2.684
-0.14259207 0 2.6820002
-0.12968212 0 2.6790001
-0.11680071 0 2.6760001
-0.10402564 0 2.6750002
-0.091225944 0 2.6730001
-0.078474678 0 2.6720002
-0.065708309 0 2.6700001
-0.053000677 0 2.6700001
-0.040232684 0 2.6660001
-0.027544094 0 2.6660001
-0.014866647 0 2.6680002
-0.0021685374 0 2.6680002
0.010703224 0 2.7120001
0.023593334 0 2.71
0.037003029 0 2.7480001
0.050337039 0 2.7620001
0.063988194 0 2.7840002
0.0780707 0 2.8140001
0.09338136 0 2.8730001
0.10973806 0 2.9450002
0.12736841 0 3.0310001
0.14567703 0 3.1140001
0.16395107 0 3.1810002
0.18218726 0 3.2360001
0.20021428 0 3.279
0.21562295 0 3.2760003
0.23156765 0 3.2810001
0.24710797 0 3.2800002
0.2630392 0 3.2840002
0.27883884 0 3.2860003
0.29492635 0 3.2910001
0.31087267 0 3.2940001
0.32744241 0 3.3030002
0.34326664 0 3.3040001
0.35931769 0 3.3070002
0.37528393 0 3.3090003
0.39138731 0 3.3120003
0.40739632 0 3.3140001
0.42316902 0 3.3140001
0.43920666 0 3.3160002
0.45512602 0 3.3170002
0.47119695 0 3.3190002
0.4872869 0 3.3210001
0.50354731 0 3.3240001
0.51921141 0 3.3230002
0.53502697 0 3.3230002
0.55100816 0 3.3240001
0.56580532 0 3.3180001
0.58072066 0 3.3130002
0.59036708 0 3.279
0.60615796 0 3.2800002
0.62025231 0 3.2720001
0.63252163 0 3.2550001
0.64721715 0 3.2510002
0.66187465 0 3.2470002
0.67169631 0 3.2200003
0.68595475 0 3.2150002
0.69667572 0 3.1940002
0.70987141 0 3.1850002
0.72002202 0 3.1630001
0.73484367 0 3.1620002
0.7453869 0 3.1430001
0.7603457 0 3.1430001
0.7770313 0 3.1500001
0.7932806 0 3.1550002
0.80752802 0 3.1520002
0.82487828 0 3.1610003
0.83885986 0 3.1570001
0.85631967 0 3.1660001
0.87441546 0 3.177
0.89037615 0 3.1800001
0.90551102 0 3.1800001
0.93222642 0 3.2200003
0.94872886 0 3.2240002
0.96646541 0 3.2320001
0.98336679 0 3.2370002
1.008338 0 3.2680001
1.0260849 0 3.2750001
1.0432624 0 3.2800002
1.0591961 0 3.2810001
1.0813633 0 3.3010001
1.0987359 0 3.3060002
1.115482 0 3.3090003
1.1325983 0 3.3130002
1.1497526 0 3.3170002
1.1655396 0 3.3170002
1.1806142 0 3.3150001
1.1945872 0 3.3100002
1.2052217 0 3.2960002
1.2194269 0 3.2920001
1.233219 0 3.2870002
1.2469635 0 3.2820001
1.2610451 0 3.2780001
1.275478 0 3.2750001
1.2902768 0 3.2730002
1.3062532 0 3.2740002
1.3222393 0 3.2750001
1.3382349 0 3.2760003
1.3554797 0 3.2800002
1.3727627 0 3.2840002
1.389661 0 3.2870002
1.405305 0 3.2870002
1.417491 0 3.279
1.4427122 0 3.3010001
1.4548885 0 3.2930002
1.4768133 0 3.3070002
1.49165 0 3.3050001
1.5069237 0 3.3040001
1.5226488 0 3.3040001
1.5383739 0 3.3040001
1.5545694 0 3.3050001
1.5712495 0 3.3070002
1.5884285 0 3.3100002
1.6046668 0 3.3110001
1.6331499 0 3.3370001
1.6460669 0 3.3310001
1.6619205 0 3.3310001
1.6772705 0 3.3300002
1.6921026 0 3.3280001
1.7069154 0 3.3260002
1.7129039 0 3.3070002
1.7286433 0 3.3070002
1.7412176 0 3.3010001
1.7787505 0 3.3420002
1.7951934 0 3.3430002
1.8273568 0 3.3730001
1.8445035 0 3.3750002
1.8622204 0 3.3780003
1.8883063 0 3.3960001
1.9067124 0 3.4000001
1.9228945 0 3.4000001
1.9390763 0 3.4000001
1.9552584 0 3.4000001
1.9720204 0 3.4010003
1.9887916 0 3.4020002
2.0049832 0 3.4020002
2.0211747 0 3.4020002
2.0367672 0 3.4010003
2.0523503 0 3.4000001
2.067924 0 3.3990002
2.0828748 0 3.3970001
2.0984247 0 3.3960001
2.1139653 0 3.3950002
2.1294956 0 3.3940001
2.1456492 0 3.3940001
2.1624398 0 3.3950002
2.1792395 0 3.3960001
2.1966956 0 3.3980002
2.2161241 0 3.4030001
2.2500319 0 3.4300001
2.2676783 0 3.4320002
2.2900021 0 3.4410002
2.3036983 0 3.4370003
2.3160062 0 3.4310002
2.3255379 0 3.4210002
2.3247061 0 3.3960001
2.3346655 0 3.3870001
2.3362105 0 3.3660002
2.3249764 0 3.3270001
2.3422182 0 3.3290002
2.363729 0 3.3370001
2.3803241 0 3.3380001
2.3904684 0 3.3300002
2.4077625 0 3.3320003
2.430167 0 3.3410001
2.4453361 0 3.3400002
2.4568112 0 3.3340001
2.4704542 0 3.3310001
2.4833221 0 3.3270001
2.4946496 0 3.3210001
2.508944 0 3.3190002
2.5247402 0 3.3190002
2.5397713 0 3.3180001
2.555563 0 3.3180001
0 -0 0
0 -0 0
0 -0 0
0 -0 0
0 -0 0
0 -0 0
0 -0 0
0 -0 0
0 -0 0
2.9073002 0 3.5550001
2.897898 0 3.5230002
2.8716445 0 3.4710002
2.884836 0 3.4670002
2.9097054 0 3.4770002
0 -0 0
0 -0 0
0 -0 0
0 -0 0
0 -0 0
0 -0 0
0 -0 0
0 -0 0
0 -0 0
0 -0 0
0 -0 0
0 -0 0
0 -0 0
0 -0 0
0 -0 0
0 -0 0
0 -0 0
0 -0 0
0 -0 0
0 -0 0
0 -0 0
0 -0 0
0 -0 0
0 -0 0
0 -0 0
0 -0 0
0 -0 0
0 -0 0
0 -0 0
0 -0 0
0 -0 0
0 -0 0
-0 -0 0
-0 -0 0
-0 -0 0
-0 -0 0
-0 -0 0
-0 -0 0
-0 -0 0
-0 -0 0
-0 -0 0
-0 -0 0
-0 -0 0
-0 -0 0
-0 -0 0
-1.0026269 0 1.0420001
-0.99671012 0 1.041
-0.99270833 0 1.0420001
-0.99059284 0 1.0450001
-0.9884488 0 1.0480001
-0.98627609 0 1.051
-0.98407495 0 1.054
-0.98370302 0 1.059
-0.98235941 0 1.0630001
-0.98097759 0 1.067
-0.97955787 0 1.0710001
-0.97809994 0 1.075
-0.97569889 0 1.0780001
-0.97236896 0 1.08
-0.96812439 0 1.0810001
-0 -0 0
-0 -0 0
-0 -0 0
-0 -0 0
-0 -0 0
-0 -0 0
-0.95194203 0 1.1040001
-0.94754511 0 1.105
-0.94143325 0 1.1040001
-0.93617886 0 1.1040001
-0.92923796 0 1.102
-0.92231613 0 1.1
-0.91541338 0 1.098
-0.90852964 0 1.0960001
-0.90248913 0 1.095
-0.89645821 0 1.0940001
-0.89125139 0 1.0940001
-0.88604462 0 1.0940001
-0.8808378 0 1.0940001
-0.87643135 0 1.095
-0.87201548 0 1.0960001
-0.86838084 0 1.098
-0.86472726 0 1.1
-0.8602733 0 1.1010001
-0.85658634 0 1.103
-0.85288036 0 1.105
-0.84915537 0 1.107
-0.84541142 0 1.1090001
-0.84240592 0 1.1120001
-0.8393718 0 1.115
-0.83630919 0 1.118
-0.83247465 0 1.12
-0.82862127 0 1.1220001
-0.8240149 0 1.123
-0.81794113 0 1.1220001
-0 -0 0
-0 -0 0
-0 -0 0
-0 -0 0
-0 -0 0
-0 -0 0
-1.3885911 0 1.9960001
-1.3825459 0 2.0010002
-1.375767 0 2.0050001
-1.3709942 0 2.0120001
-1.3641249 0 2.016
-1.3746865 0 2.046
-1.3609462 0 2.0400002
-1.3790563 0 2.082
-1.3625711 0 2.072
-1.3846995 0 2.1210001
-1.375901 0 2.1230001
-1.37609 0 2.1390002
-1.368464 0 2.1430001
-1.3595322 0 2.1450002
-1.3543557 0 2.1530001
-1.3453574 0 2.1550002
-1.3543063 0 2.1860001
-1.3463613 0 2.1900001
-1.3469187 0 2.2080002
-1.3575938 0 2.243
-1.3541244 0 2.2550001
-1.3523282 0 2.2700002
-1.3450701 0 2.276
-1.3565141 0 2.3140001
-1.3431751 0 2.3100002
-1.352942 0 2.3460002
-1.3589346 0 2.3760002
-1.3555667 0 2.3900001
-1.3633142 0 2.424
-1.3668344 0 2.4510002
-1.3739678 0 2.4850001
-1.3637851 0 2.4880002
-1.3715056 0 2.5240002
-1.3594928 0 2.5240002
-1.3490818 0 2.5270002
-1.358748 0 2.5680001
-1.3575372 0 2.5890002
-1.3628811 0 2.6230001
-1.3709903 0 2.6630001
-1.3715777 0 2.6890001
-1.375455 0 2.7220001
-1.3825219 0 2.7620001
-1.382267 0 2.7880001
-1.3842198 0 2.8190002
-1.3703166 0 2.8180001
-1.3703871 0 2.8460002
-1.3763885 0 2.8870001
-1.3664242 0 2.8950002
-1.3694662 0 2.9310002
-1.3735528 0 2.97
-1.3754375 0 3.0050001
-1.3942013 0 3.0780001
-1.3921014 0 3.1060002
-1.3972734 0 3.1510003
-1.4007009 0 3.1930001
-1.3872398 0 3.1970003
-1.3776031 0 3.21
-1.3648717 0 3.2160001
-1.3541815 0 3.2270002
-1.3392378 0 3.2280002
-1.3242846 0 3.2290001
-1.3133755 0 3.2400002
-1.2987561 0 3.2420001
-1.2845137 0 3.2450001
-1.2694603 0 3.2460001
-1.2551703 0 3.2490001
-1.239707 0 3.2490001
-1.2246206 0 3.2500002
-1.2098966 0 3.2520001
-1.1951535 0 3.2540002
-1.1803913 0 3.256
-1.164537 0 3.2550001
-1.1483392 0 3.2530003
-1.1258917 0 3.233
-1.1105045 0 3.233
-1.0944399 0 3.2310002
-1.0770584 0 3.2250001
-1.0600634 0 3.2200003
-1.0427912 0 3.2140002
-1.0258961 0 3.2090001
-1.0096782 0 3.2060001
-0.99441957 0 3.2060001
-0.9791609 0 3.2060001
-0.9620983 0 3.2
-0.94686812 0 3.2
-0.93163806 0 3.2
-0.916408 0 3.2
-0.90089619 0 3.1990001
-0.88539404 0 3.1980002
-0.84677297 0 3.1120002
-0.81110907 0 3.0340002
-0.76778519 0 2.924
-0.73427427 0 2.848
-0.70831943 0 2.799
-0.68134129 0 2.7440002
-0.66828144 0 2.7440002
-0.64734173 0 2.7110002
-0.63092864 0 2.6960001
-0.61328268 0 2.6750002
-0.59718364 0 2.6600001
-0.58430392 0 2.6590002
-0.57143366 0 2.6580002
-0.55983424 0 2.6630001
-0.54777634 0 2.6660001
-0.53568989 0 2.6690001
-0.52416271 0 2.6750002
-0.51104885 0 2.6730001
-0.49944559 0 2.6790001
-0.48796678 0 2.6860001
-0.4750061 0 2.6850002
-0.46343216 0 2.6920002
-0.45061982 0 2.6920002
-0.43731958 0 2.6890001
-0.42452154 0 2.6890001
-0.41157037 0 2.6880002
-0.39848033 0 2.6860001
-0.38526574 0 2.6830001
-0.37069142 0 2.6700001
-0.35798377 0 2.6700001
-0.34527612 0 2.6700001
-0.33418775 0 2.6830001
-0.32165787 0 2.6850002
-0.30910891 0 2.687
-0.29654092 0 2.6890001
-0.28395393 0 2.6910002
-0.27134788 0 2.6930001
-0.25881878 0 2.6960001
-0.24543995 0 2.6900001
-0.23272361 0 2.6910002
-0.2204881 0 2.6980002
-0.20757024 0 2.697
-0.1946619 0 2.6960001
-0.18169565 0 2.6940002
-0.16874841 0 2.6920002
-0.15593608 0 2.6920002
-0.14243257 0 2.6790001
-0.1295853 0 2.677
-0.11671341 0 2.674
-0.10398674 0 2.674
-0.091225944 0 2.6730001
-0.078504041 0 2.6730001
-0.065757528 0 2.6720002
-0.05306023 0 2.6730001
-0.040247776 0 2.6670001
-0.027554424 0 2.6670001
-0.014866647 0 2.6680002
-0.0022034876 0 2.7110002
0.010722958 0 2.7170002
0.023810986 0 2.7350001
0.037083823 0 2.7540002
0.05057396 0 2.7750001
0.064011171 0 2.7850001
0.078098439 0 2.8150001
0.09338136 0 2.8730001
0.10977531 0 2.9460001
0.12749447 0 3.0340002
0.14581738 0 3.1170001
0.16518804 0 3.2050002
0.18241248 0 3.2400002
0.20051958 0 3.2840002
0.21535966 0 3.2720001
0.23199113 0 3.2870002
0.24831337 0 3.2960002
0.2632795 0 3.2870002
0.27875397 0 3.2850001
0.29510558 0 3.2930002
0.31068394 0 3.2920001
0.32744241 0 3.3030002
0.34326664 0 3.3040001
0.35920903 0 3.3060002
0.37517047 0 3.3080001
0.39126912 0 3.3110001
0.40727341 0 3.3130002
0.42316902 0 3.3140001
0.43920666 0 3.3160002
0.45512602 0 3.3170002
0.47133893 0 3.3200002
0.48758036 0 3.3230002
0.50385034 0 3.3260002
0.51952386 0 3.325
0.53518796 0 3.3240001
0.55100816 0 3.3240001
0.5659759 0 3.3190002
0.58054537 0 3.3120003
0.59018701 0 3.2780001
0.60634273 0 3.2810001
0.6210106 0 3.2760003
0.63407624 0 3.2630002
0.64761537 0 3.2530003
0.6620785 0 3.2480001
0.67190486 0 3.2210002
0.68595475 0 3.2150002
0.69951129 0 3.2070003
0.70719683 0 3.1730001
0.72320896 0 3.177
0.7360056 0 3.1670001
0.7453869 0 3.1430001
0.76058763 0 3.1440001
0.7782647 0 3.1550002
0.79428637 0 3.1590002
0.8077842 0 3.1530001
0.82331252 0 3.1550002
0.83885986 0 3.1570001
0.85956532 0 3.1780002
0.87744308 0 3.1880002
0.89037615 0 3.1800001
0.90579581 0 3.1810002
0.93251592 0 3.2210002
0.94872886 0 3.2240002
0.96616638 0 3.2310002
0.98275918 0 3.2350001
1.0092636 0 3.2710001
1.0263983 0 3.2760003
1.0435804 0 3.2810001
1.0595188 0 3.2820001
1.0807083 0 3.2990003
1.0977389 0 3.3030002
1.1141335 0 3.3050001
1.1308888 0 3.3080001
1.1483661 0 3.3130002
1.1641341 0 3.3130002
1.1788336 0 3.3100002
1.1920609 0 3.3030002
1.2041247 0 3.2930002
1.2183157 0 3.2890003
1.2320935 0 3.2840002
1.2458236 0 3.279
1.259891 0 3.2750001
1.2743096 0 3.2720001
1.2890941 0 3.2700002
1.3046573 0 3.2700002
1.3202206 0 3.2700002
1.3361924 0 3.2710001
1.3534135 0 3.2750001
1.3702546 0 3.2780001
1.387547 0 3.2820001
1.4040225 0 3.2840002
1.4213816 0 3.2880001
1.4365934 0 3.2870002
1.4579812 0 3.3000002
1.4750271 0 3.3030002
1.4907473 0 3.3030002
1.5060115 0 3.302
1.5217271 0 3.302
1.5379083 0 3.3030002
1.5545694 0 3.3050001
1.5717247 0 3.3080001
1.5889084 0 3.3110001
1.6051515 0 3.3120003
1.6341287 0 3.3390002
1.6485379 0 3.3360002
1.6644152 0 3.3360002
1.6792853 0 3.3340001
1.6946448 0 3.3330002
1.7094814 0 3.3310001
1.7134218 0 3.3080001
1.7265525 0 3.3030002
1.7422727 0 3.3030002
1.7814116 0 3.3470001
1.7978784 0 3.348
1.8165216 0 3.3530002
1.8439569 0 3.3740001
1.8627716 0 3.3790002
1.8855261 0 3.3910003
1.9055909 0 3.3980002
1.9223289 0 3.3990002
1.938506 0 3.3990002
1.9546834 0 3.3990002
1.9714404 0 3.4000001
1.988207 0 3.4010003
2.0043938 0 3.4010003
2.0205808 0 3.4010003
2.0361683 0 3.4000001
2.0517468 0 3.3990002
2.0673158 0 3.3980002
2.0822618 0 3.3960001
2.0978069 0 3.3950002
2.1133423 0 3.3940001
2.1288683 0 3.3930001
2.1450171 0 3.3930001
2.1618028 0 3.3940001
2.1792395 0 3.3960001
2.1979883 0 3.4000001
2.2161241 0 3.4030001
2.2480638 0 3.427
2.2663567 0 3.4300001
2.2860091 0 3.4350002
2.301017 0 3.4330001
2.315331 0 3.4300001
2.3078635 0 3.3950002
2.3247061 0 3.3960001
2.313297 0 3.3560002
2.3341281 0 3.3630002
2.3270729 0 3.3300002
2.3450325 0 3.3330002
2.3573539 0 3.3280001
2.3753324 0 3.3310001
2.391186 0 3.3310001
2.4092076 0 3.3340001
2.4323492 0 3.3440001
2.4453361 0 3.3400002
2.459022 0 3.3370001
2.4660044 0 3.325
2.4795902 0 3.3220003
2.4938986 0 3.3200002
2.508944 0 3.3190002
2.5247402 0 3.3190002
2.5397713 0 3.3180001
2.555563 0 3.3180001
2.566705 0 3.3120003
0 -0 0
0 -0 0
0 -0 0
0 -0 0
0 -0 0
0 -0 0
0 -0 0
2.8968852 0 3.5630002
2.9073002 0 3.5550001
2.8904948 0 3.5140002
2.888191 0 3.4910002
2.884836 0 3.4670002
2.889621 0 3.4530001
0 -0 0
0 -0 0
0 -0 0
0 -0 0
0 -0 0
0 -0 0
0 -0 0
0 -0 0
0 -0 0
0 -0 0
0 -0 0
0 -0 0
0 -0 0
0 -0 0
0 -0 0
0 -0 0
0 -0 0
0 -0 0
0 -0 0
0 -0 0
0 -0 0
0 -0 0
0 -0 0
0 -0 0
0 -0 0
0 -0 0
0 -0 0
0 -0 0
0 -0 0
0 -0 0
0 -0 0
0 -0 0
-0 -0 0
-0 -0 0
-0 -0 0
-0 -0 0
-0 -0 0
-0 -0 0
-0 -0 0
-0 -0 0
-0 -0 0
-0 -0 0
-0 -0 0
-0 -0 0
-0 -0 0
-1.0026269 0 1.0420001
-0.99671012 0 1.041
-0.99270833 0 1.0420001
-0.99059284 0 1.0450001
-0.9884488 0 1.0480001
-0.98721457 0 1.052
-0.98500866 0 1.0550001
-0.98463196 0 1.0600001
-0.98420769 0 1.0650001
-0.98281634 0 1.069
-0.98138714 0 1.0730001
-0.97991961 0 1.077
-0.97750908 0 1.08
-0.97416961 0 1.082
-0.96901989 0 1.082
-0 -0 0
-0 -0 0
-0 -0 0
-0 -0 0
-0 -0 0
-0 -0 0
-0 -0 0
-0.94840264 0 1.1060001
-0.94228595 0 1.105
-0.93617886 0 1.1040001
-0.93008125 0 1.103
-0.92315465 0 1.1010001
-0.91624713 0 1.0990001
-0.90935856 0 1.097
-0.90248913 0 1.095
-0.89645821 0 1.0940001
-0.89125139 0 1.0940001
-0.88685447 0 1.095
-0.88164288 0 1.095
-0.87723178 0 1.0960001
-0.87281108 0 1.097
-0.86838084 0 1.098
-0.86472726 0 1.1
-0.8610546 0 1.102
-0.85736299 0 1.1040001
-0.85365224 0 1.1060001
-0.84992248 0 1.108
-0.84617364 0 1.11
-0.84316337 0 1.113
-0.84012461 0 1.1160001
-0.83705723 0 1.1190001
-0.83321798 0 1.1210001
-0.82935977 0 1.123
-0.82474869 0 1.1240001
-0.8172121 0 1.1210001
-0 -0 0
-0 -0 0
-0 -0 0
-0 -0 0
-0 -0 0
-1.3910863 0 1.9860001
-1.3851126 0 1.9910001
-1.3797822 0 1.9970001
-1.3750808 0 2.0040002
-1.3703129 0 2.0110002
-1.3627716 0 2.0140002
-1.3760303 0 2.0480001
-1.3629475 0 2.043
-1.3797189 0 2.0830002
-1.364544 0 2.075
-1.3860053 0 2.1230001
-1.3778453 0 2.1260002
-1.3773767 0 2.141
-1.3691026 0 2.1440001
-1.3607998 0 2.1470001
-1.3562429 0 2.1560001
-1.3466059 0 2.1570001
-1.3536869 0 2.1850002
-1.3457466 0 2.1890001
-1.3481387 0 2.21
-1.3606201 0 2.2480001
-1.3553255 0 2.2570002
-1.3553069 0 2.2750001
-1.3444791 0 2.2750001
-1.3547554 0 2.3110001
-1.3489896 0 2.3200002
-1.3506351 0 2.342
-1.3589346 0 2.3760002
-1.3544323 0 2.388
-1.3633142 0 2.424
-1.3673921 0 2.4520001
-1.3745205 0 2.4860001
-1.3643333 0 2.4890001
-1.3720489 0 2.5250001
-1.3600314 0 2.5250001
-1.3490818 0 2.5270002
-1.3608644 0 2.572
-1.3554397 0 2.585
-1.3556069 0 2.6090002
-1.3637826 0 2.6490002
-1.3695375 0 2.6850002
-1.373939 0 2.7190001
-1.3775164 0 2.7520001
-1.3817712 0 2.7870002
-1.3832376 0 2.8170002
-1.3703166 0 2.8180001
-1.3718317 0 2.8490002
-1.3768654 0 2.8880002
-1.3678402 0 2.8980002
-1.3699335 0 2.9320002
-1.3740153 0 2.9710002
-1.3877958 0 3.0320001
-1.3946544 0 3.0790002
-1.4095811 0 3.1450002
-1.4145675 0 3.1900001
-1.4143001 0 3.2240002
-1.3989557 0 3.2240002
-1.3896196 0 3.2380002
-1.3759062 0 3.2420001
-1.3546011 0 3.2280002
-1.3392378 0 3.2280002
-1.3246948 0 3.2300003
-1.3137808 0 3.2410002
-1.2991568 0 3.2430003
-1.2845137 0 3.2450001
-1.2694603 0 3.2460001
-1.2547841 0 3.2480001
-1.239707 0 3.2490001
-1.2246206 0 3.2500002
-1.2098966 0 3.2520001
-1.1947862 0 3.2530003
-1.1800289 0 3.2550001
-1.1638216 0 3.2530003
-1.1472801 0 3.2500002
-1.1255435 0 3.2320001
-1.1101611 0 3.2320001
-1.0944399 0 3.2310002
-1.0770584 0 3.2250001
-1.0600634 0 3.2200003
-1.0411689 0 3.2090001
-1.0249369 0 3.2060001
-1.0087335 0 3.2030001
-0.99317884 0 3.2020001
-0.97793925 0 3.2020001
-0.96179771 0 3.1990001
-0.94657224 0 3.1990001
-0.93105584 0 3.1980002
-0.91583526 0 3.1980002
-0.90343076 0 3.2080002
-0.87431973 0 3.1580002
-0.8473171 0 3.1140001
-0.81084174 0 3.0330002
-0.76857293 0 2.927
-0.73375869 0 2.8460002
-0.70781332 0 2.7970002
-0.68332767 0 2.7520001
-0.66828144 0 2.7440002
-0.64543146 0 2.7030001
-0.63069463 0 2.6950002
-0.61397052 0 2.6780002
-0.60144925 0 2.6790001
-0.58474338 0 2.661
-0.57164866 0 2.6590002
-0.5619365 0 2.6730001
-0.55003643 0 2.677
-0.53789765 0 2.6800001
-0.52455455 0 2.677
-0.51296073 0 2.6830001
-0.50000489 0 2.6820002
-0.48778513 0 2.6850002
-0.47535989 0 2.687
-0.46343216 0 2.6920002
-0.45078719 0 2.6930001
-0.43715695 0 2.6880002
-0.42436367 0 2.6880002
-0.41202971 0 2.6910002
-0.39818361 0 2.684
-0.38526574 0 2.6830001
-0.37221861 0 2.6810002
-0.35932451 0 2.6800001
-0.34527612 0 2.6700001
-0.33418775 0 2.6830001
-0.32153806 0 2.684
-0.30887884 0 2.6850002
-0.29632035 0 2.687
-0.28374287 0 2.6890001
-0.27114636 0 2.6910002
-0.25862679 0 2.6940002
-0.2455312 0 2.6910002
-0.23272361 0 2.6910002
-0.21983431 0 2.6900001
-0.20687757 0 2.6880002
-0.19343443 0 2.6790001
-0.18054909 0 2.677
-0.16774544 0 2.6760001
-0.15489341 0 2.674
-0.14211358 0 2.6730001
-0.12944008 0 2.674
-0.11671341 0 2.674
-0.10394786 0 2.6730001
-0.091191821 0 2.6720002
-0.078533411 0 2.674
-0.065831363 0 2.6750002
-0.053159483 0 2.6780002
-0.040579777 0 2.6890001
-0.027947027 0 2.7050002
-0.015095107 0 2.7090001
-0.0022051129 0 2.7130001
0.010726904 0 2.7180002
0.023802282 0 2.7340002
0.037029959 0 2.7500002
0.050537515 0 2.7730002
0.063965209 0 2.7830002
0.078098439 0 2.8150001
0.093348861 0 2.8720002
0.10981257 0 2.947
0.12757853 0 3.0360003
0.14595772 0 3.1200001
0.16518804 0 3.2050002
0.18263766 0 3.2440002
0.20155759 0 3.3010001
0.21779497 0 3.3090003
0.23255575 0 3.2950001
0.24778602 0 3.2890003
0.26416057 0 3.2980001
0.2798571 0 3.2980001
0.29573289 0 3.3000002
0.31143895 0 3.3000002
0.32744241 0 3.3030002
0.34243548 0 3.2960002
0.35801384 0 3.2950001
0.37403634 0 3.2980001
0.39103279 0 3.3090003
0.40702751 0 3.3110001
0.42304134 0 3.3130002
0.43907419 0 3.3150001
0.45498884 0 3.3160002
0.47133893 0 3.3200002
0.48772708 0 3.3240001
0.5040018 0 3.3270001
0.51983637 0 3.3270001
0.53550994 0 3.3260002
0.5493505 0 3.3140001
0.56495273 0 3.3130002
0.57949364 0 3.3060002
0.59108728 0 3.2830002
0.6067124 0 3.2830002
0.6181671 0 3.2610002
0.63329893 0 3.2590001
0.64841169 0 3.2570002
0.66228235 0 3.2490001
0.67169631 0 3.2200003
0.68616807 0 3.2160001
0.70038378 0 3.2110002
0.71165442 0 3.1930001
0.72229838 0 3.1730001
0.73554087 0 3.1650002
0.74918145 0 3.1590002
0.7666356 0 3.1690001
0.77777135 0 3.1530001
0.79403496 0 3.1580002
0.80906522 0 3.1580002
0.82670498 0 3.1680002
0.84284556 0 3.1720002
0.86010623 0 3.1800001
0.87771827 0 3.1890001
0.89065617 0 3.1810002
0.90579581 0 3.1810002
0.93280542 0 3.2220001
0.94843453 0 3.223
0.9760344 0 3.2640002
0.99399936 0 3.2720001
1.0104978 0 3.2750001
1.0270249 0 3.2780001
1.0442165 0 3.2830002
1.0598418 0 3.2830002
1.0807083 0 3.2990003
1.0970742 0 3.3010001
1.1131221 0 3.302
1.1291796 0 3.3030002
1.1473262 0 3.3100002
1.16308 0 3.3100002
1.1777651 0 3.3070002
1.1895345 0 3.2960002
1.2026621 0 3.2890003
1.2168339 0 3.2850001
1.2309679 0 3.2810001
1.244684 0 3.2760003
1.2587368 0 3.2720001
1.2731413 0 3.2690001
1.2879114 0 3.2670002
1.3034604 0 3.2670002
1.3190094 0 3.2670002
1.3349669 0 3.2680001
1.3521737 0 3.2720001
1.3690006 0 3.2750001
1.3862786 0 3.279
1.403595 0 3.2830002
1.4209493 0 3.2870002
1.4400898 0 3.2950001
1.4575394 0 3.2990003
1.4745804 0 3.302
1.4907473 0 3.3030002
1.5060115 0 3.302
1.5217271 0 3.302
1.5379083 0 3.3030002
1.5550398 0 3.3060002
1.5721998 0 3.3090003
1.5893884 0 3.3120003
1.6056361 0 3.3130002
1.6355969 0 3.3420002
1.6510086 0 3.3410001
1.6669098 0 3.3410001
1.6818037 0 3.3390002
1.6971869 0 3.3380001
1.7120473 0 3.3360002
1.7129039 0 3.3070002
1.7275978 0 3.3050001
1.7433276 0 3.3050001
1.7840729 0 3.3520002
1.8005635 0 3.3530002
1.8186886 0 3.3570001
1.8412243 0 3.3690002
1.8616691 0 3.3770001
1.8827459 0 3.3860002
1.894375 0 3.3780003
1.9093212 0 3.3760002
1.9236778 0 3.3730001
1.9385812 0 3.3710001
1.9540454 0 3.3700001
1.9700845 0 3.3700001
1.9861238 0 3.3700001
2.0021632 0 3.3700001
2.0158067 0 3.3660002
2.031827 0 3.3660002
2.0417633 0 3.3560002
2.0638673 0 3.3660002
2.0786517 0 3.3640001
2.0959077 0 3.3660002
2.1131828 0 3.3680003
2.1285801 0 3.3670001
2.1446052 0 3.3670001
2.1612718 0 3.3680003
2.1992815 0 3.4020002
2.2174265 0 3.4050002
2.24544 0 3.4230001
2.2643745 0 3.427
2.2833471 0 3.4310002
2.2990062 0 3.4300001
2.2903552 0 3.3930001
2.3078635 0 3.3950002
2.3048544 0 3.3670001
2.3215687 0 3.3680003
2.3042836 0 3.3200002
2.3242776 0 3.3260002
2.3267395 0 3.3070002
2.3552289 0 3.325
2.3739064 0 3.3290002
2.391186 0 3.3310001
2.4099305 0 3.3350003
2.4316218 0 3.3430002
2.4468005 0 3.3420002
2.4656541 0 3.3460002
2.4660044 0 3.325
2.4907863 0 3.3370001
2.4886403 0 3.3130002
2.5028963 0 3.3110001
2.5247402 0 3.3190002
2.5382404 0 3.3160002
2.5532525 0 3.3150001
2.5682547 0 3.3140001
0 -0 0
0 -0 0
0 -0 0
0 -0 0
0 -0 0
2.9031458 0 3.6130002
2.8855853 0 3.5700002
2.8985112 0 3.5650001
2.8868551 0 3.5300002
2.8608825 0 3.4780002
2.878263 0 3.4790001
2.8640339 0 3.4420002
2.8887842 0 3.4520001
2.902689 0 3.4490001
0 -0 0
0 -0 0
0 -0 0
0 -0 0
0 -0 0
0 -0 0
0 -0 0
0 -0 0
0 -0 0
0 -0 0
0 -0 0
0 -0 0
0 -0 0
0 -0 0
0 -0 0
0 -0 0
0 -0 0
0 -0 0
0 -0 0
0 -0 0
0 -0 0
0 -0 0
0 -0 0
0 -0 0
0 -0 0
0 -0 0
0 -0 0
0 -0 0
0 -0 0
0 -0 0
0 -0 0
-0 -0 0
-0 -0 0
-0 -0 0
-0 -0 0
-0 -0 0
-0 -0 0
-0 -0 0
-0 -0 0
-0 -0 0
-0 -0 0
-0 -0 0
-0 -0 0
-0 -0 0
-1.0026269 0 1.0420001
-0.99671012 0 1.041
-0.99366105 0 1.0430001
-0.99059284 0 1.0450001
-0.98939192 0 1.049
-0.98815304 0 1.0530001
-0.98687589 0 1.057
-0.98556089 0 1.0610001
-0.98513186 0 1.0660001
-0.98373574 0 1.0700001
-0.98230165 0 1.074
-0.98082954 0 1.0780001
-0.97841418 0 1.0810001
-0.97507 0 1.0830001
-0.96991551 0 1.0830001
-0 -0 0
-0 -0 0
-0 -0 0
-0 -0 0
-0 -0 0
-0 -0 0
-0 -0 0
-0.94840264 0 1.1060001
-0.94228595 0 1.105
-0.93702674 0 1.105
-0.93008125 0 1.103
-0.92315465 0 1.1010001
-0.91624713 0 1.0990001
-0.90935856 0 1.097
-0.90248913 0 1.095
-0.89645821 0 1.0940001
-0.89125139 0 1.0940001
-0.88685447 0 1.095
-0.88244808 0 1.0960001
-0.87803209 0 1.097
-0.87360674 0 1.098
-0.8691718 0 1.0990001
-0.86551338 0 1.1010001
-0.86183602 0 1.103
-0.85813951 0 1.105
-0.854424 0 1.107
-0.85068959 0 1.1090001
-0.84693605 0 1.1110001
-0.84392101 0 1.1140001
-0.84087747 0 1.1170001
-0.83780521 0 1.12
-0.83396131 0 1.1220001
-0.82935977 0 1.123
-0.82474869 0 1.1240001
-0 -0 0
-0 -0 0
-0 -0 0
-0 -0 0
-0 -0 0
-0 -0 0
-1.3868836 0 1.9800001
-1.3816342 0 1.9860001
-1.3777094 0 1.9940001
-1.3743945 0 2.003
-1.3709942 0 2.0120001
-1.3627716 0 2.0140002
-1.3773742 0 2.0500002
-1.3656161 0 2.0470002
-1.3803812 0 2.0840001
-1.3665168 0 2.0780001
-1.3866581 0 2.1240001
-1.3791413 0 2.128
-1.3786634 0 2.1430001
-1.3697412 0 2.1450002
-1.3614336 0 2.148
-1.359388 0 2.161
-1.3484788 0 2.1600001
-1.3530673 0 2.184
-1.3654195 0 2.2210002
-1.3487488 0 2.2110002
-1.3606201 0 2.2480001
-1.3625314 0 2.2690001
-1.3529239 0 2.2710001
-1.3651634 0 2.3100002
-1.3524106 0 2.3070002
-1.3635261 0 2.345
-1.3725498 0 2.3800001
-1.3583626 0 2.375
-1.3686119 0 2.4130001
-1.3621894 0 2.4220002
-1.3679496 0 2.4530001
-1.3767322 0 2.49
-1.3665258 0 2.493
-1.3780261 0 2.536
-1.3611087 0 2.5270002
-1.3501494 0 2.529
-1.3619226 0 2.5740001
-1.3549154 0 2.5840001
-1.3550872 0 2.608
-1.3632679 0 2.6480002
-1.3685173 0 2.6830001
-1.3729285 0 2.7170002
-1.3765154 0 2.7500002
-1.3748301 0 2.7730002
-1.3822556 0 2.8150001
-1.3776108 0 2.8330002
-1.3732762 0 2.8520002
-1.3778188 0 2.8900001
-1.3820001 0 2.9280002
-1.3886229 0 2.9720001
-1.3943642 0 3.0150001
-1.4138857 0 3.0890002
-1.4222847 0 3.1400001
-1.4306463 0 3.1920002
-1.4274272 0 3.2190001
-1.4121066 0 3.2190001
-1.4137089 0 3.2580001
-1.390907 0 3.2410002
-1.3780283 0 3.2470002
-1.3608959 0 3.2430003
-1.3425568 0 3.2360001
-1.3246948 0 3.2300003
-1.3141861 0 3.2420001
-1.2995573 0 3.2440002
-1.2849095 0 3.2460001
-1.2698516 0 3.2470002
-1.2547841 0 3.2480001
-1.239707 0 3.2490001
-1.2246206 0 3.2500002
-1.2098966 0 3.2520001
-1.1947862 0 3.2530003
-1.1800289 0 3.2550001
-1.1638216 0 3.2530003
-1.146927 0 3.2490001
-1.1251953 0 3.2310002
-1.1115351 0 3.2360001
-1.0944399 0 3.2310002
-1.0770584 0 3.2250001
-1.0603925 0 3.2210002
-1.0395467 0 3.2040002
-1.0239779 0 3.2030001
-1.0081036 0 3.2010002
-0.99255848 0 3.2
-0.97732842 0 3.2
-0.96179771 0 3.1990001
-0.94627643 0 3.1980002
-0.93076473 0 3.1970003
-0.91869903 0 3.2080002
-0.90145946 0 3.2010002
-0.87431973 0 3.1580002
-0.84105885 0 3.0910001
-0.79613805 0 2.9780002
-0.75859487 0 2.8890002
-0.72602403 0 2.8160002
-0.7075603 0 2.7960002
-0.6808446 0 2.7420001
-0.66803783 0 2.743
-0.64495391 0 2.7010002
-0.63209873 0 2.7010002
-0.614429 0 2.6800001
-0.60212278 0 2.6820002
-0.58891857 0 2.6800001
-0.57659334 0 2.6820002
-0.56361836 0 2.6810002
-0.55085838 0 2.6810002
-0.53829908 0 2.6820002
-0.52886546 0 2.6990001
-0.51353431 0 2.6860001
-0.5007506 0 2.6860001
-0.48796678 0 2.6860001
-0.47535989 0 2.687
-0.4636043 0 2.6930001
-0.45078719 0 2.6930001
-0.43797007 0 2.6930001
-0.42499515 0 2.6920002
-0.41202971 0 2.6910002
-0.39892539 0 2.6890001
-0.38526574 0 2.6830001
-0.37235746 0 2.6820002
-0.35932451 0 2.6800001
-0.34669864 0 2.6810002
-0.3340632 0 2.6820002
-0.32141826 0 2.6830001
-0.3087638 0 2.684
-0.29609981 0 2.6850002
-0.28353184 0 2.687
-0.27084407 0 2.6880002
-0.25795475 0 2.687
-0.24525747 0 2.6880002
-0.23246416 0 2.6880002
-0.21958913 0 2.687
-0.20672365 0 2.6860001
-0.19321781 0 2.6760001
-0.18034674 0 2.674
-0.1674947 0 2.6720002
-0.15471964 0 2.6710002
-0.14200725 0 2.6710002
-0.12929487 0 2.6710002
-0.11658248 0 2.6710002
-0.10390897 0 2.6720002
-0.091225944 0 2.6730001
-0.078533411 0 2.674
-0.065880574 0 2.677
-0.053219035 0 2.6810002
-0.040579777 0 2.6890001
-0.027947027 0 2.7050002
-0.015095107 0 2.7090001
-0.0022051129 0 2.7130001
0.010726904 0 2.7180002
0.023793574 0 2.733
0.036814515 0 2.7340002
0.050537515 0 2.7730002
0.063804314 0 2.776
0.0780707 0 2.8140001
0.093218841 0 2.868
0.10977531 0 2.9460001
0.12757853 0 3.0360003
0.14605129 0 3.1220002
0.16518804 0 3.2050002
0.18280657 0 3.2470002
0.20180182 0 3.3050001
0.21792661 0 3.3110001
0.2330498 0 3.302
0.2493681 0 3.3100002
0.26464117 0 3.3040001
0.28028139 0 3.3030002
0.29600173 0 3.3030002
0.31162769 0 3.302
0.32744241 0 3.3030002
0.34326664 0 3.3040001
0.35899171 0 3.3040001
0.3742632 0 3.3000002
0.39079645 0 3.3070002
0.40665874 0 3.3080001
0.42265826 0 3.3100002
0.43867686 0 3.3120003
0.45471439 0 3.3140001
0.47119695 0 3.3190002
0.48772708 0 3.3240001
0.50415331 0 3.3280001
0.52014887 0 3.3290002
0.53534895 0 3.325
0.54951626 0 3.3150001
0.56665796 0 3.3230002
0.57896781 0 3.3030002
0.59162742 0 3.2860003
0.60652757 0 3.2820001
0.61778796 0 3.2590001
0.63310462 0 3.2580001
0.64900893 0 3.2600002
0.6624862 0 3.2500002
0.67253065 0 3.2240002
0.68616807 0 3.2160001
0.70103812 0 3.2140002
0.71187735 0 3.1940002
0.72252607 0 3.1740003
0.73647046 0 3.1690001
0.75036722 0 3.164
0.76711941 0 3.1710002
0.78196484 0 3.1700001
0.79705215 0 3.1700001
0.81265193 0 3.1720002
0.82853162 0 3.1750002
0.84337705 0 3.1740003
0.85848349 0 3.1740003
0.87551641 0 3.1810002
0.89065617 0 3.1810002
0.92145711 0 3.2360001
0.93309492 0 3.223
0.9581455 0 3.256
0.97483826 0 3.2600002
1.0006827 0 3.2940001
1.0172859 0 3.2970002
1.0307846 0 3.2900002
1.0454888 0 3.2870002
1.0646842 0 3.2980001
1.0810359 0 3.3000002
1.0967418 0 3.3000002
1.112448 0 3.3000002
1.1278121 0 3.2990003
1.1358876 0 3.2770002
1.1546468 0 3.2860003
1.167437 0 3.2780001
1.1848428 0 3.2830002
1.2001023 0 3.2820001
1.2153523 0 3.2810001
1.2305927 0 3.2800002
1.2458236 0 3.279
1.2606604 0 3.2770002
1.2758676 0 3.2760003
1.2914594 0 3.2760003
1.3066522 0 3.2750001
1.3182019 0 3.2650001
1.33415 0 3.2660003
1.3517604 0 3.2710001
1.3685826 0 3.2740002
1.3862786 0 3.279
1.403595 0 3.2830002
1.4205171 0 3.2860003
1.4396528 0 3.2940001
1.4531213 0 3.2890003
1.4745804 0 3.302
1.4907473 0 3.3030002
1.5196943 0 3.3320003
1.5360135 0 3.3330002
1.5532734 0 3.3360002
1.5700915 0 3.3380001
1.5874039 0 3.3410001
1.6047447 0 3.3440001
1.6211449 0 3.3450003
1.6370652 0 3.3450003
1.6529853 0 3.3450003
1.6689055 0 3.3450003
1.6843221 0 3.3440001
1.7002376 0 3.3440001
1.7151266 0 3.3420002
1.7362123 0 3.3520002
1.7537341 0 3.3550003
1.7712842 0 3.3580003
1.7862018 0 3.3560002
1.8021744 0 3.3560002
1.8192306 0 3.3580003
1.8384917 0 3.3640001
1.8611178 0 3.3760002
1.8810778 0 3.3830001
1.894375 0 3.3780003
1.9093212 0 3.3760002
1.9025761 0 3.3360002
1.9201789 0 3.3390002
1.9389697 0 3.3440001
1.9554697 0 3.3450003
1.9719794 0 3.3460002
1.9896867 0 3.3490002
2.0134113 0 3.3620002
2.0300159 0 3.3630002
2.0466304 0 3.3640001
2.0626409 0 3.3640001
2.076798 0 3.3610001
2.0940397 0 3.3630002
2.1113005 0 3.3650002
2.1273158 0 3.3650002
2.1439683 0 3.3660002
2.16063 0 3.3670001
2.1837661 0 3.3780003
2.2161241 0 3.4030001
2.244128 0 3.4210002
2.2630532 0 3.4250002
2.2813506 0 3.4280002
2.2969954 0 3.427
2.2896802 0 3.3920002
2.3071837 0 3.3940001
2.3000627 0 3.3600001
2.2891715 0 3.3210001
2.3042836 0 3.3200002
2.303313 0 3.2960002
2.3232214 0 3.302
2.3353956 0 3.2970002
2.350374 0 3.2960002
2.391186 0 3.3310001
2.4106529 0 3.3360002
2.4308946 0 3.3420002
2.4468005 0 3.3420002
2.4612327 0 3.3400002
2.4756458 0 3.3380001
2.4945183 0 3.3420002
2.5104244 0 3.3420002
2.5096998 0 3.3200002
2.525501 0 3.3200002
2.5390058 0 3.3170002
2.5547929 0 3.3170002
2.5705798 0 3.3170002
2.6113181 0 3.3490002
0 -0 0
0 -0 0
0 -0 0
2.8787613 0 3.6040001
2.8951104 0 3.6030002
2.8775024 0 3.5600002
2.8855026 0 3.5490003
2.8884907 0 3.5320001
2.8592372 0 3.4760001
2.8691626 0 3.4680002
2.8623695 0 3.4400001
2.8871105 0 3.45
2.8934314 0 3.4380002
2.9055622 0 3.4330001
0 -0 0
0 -0 0
0 -0 0
0 -0 0
0 -0 0
0 -0 0
0 -0 0
0 -0 0
0 -0 0
0 -0 0
0 -0 0
0 -0 0
0 -0 0
0 -0 0
0 -0 0
0 -0 0
0 -0 0
0 -0 0
0 -0 0
0 -0 0
0 -0 0
0 -0 0
0 -0 0
0 -0 0
0 -0 0
0 -0 0
0 -0 0
0 -0 0
0 -0 0
0 -0 0
-0 -0 0
-0 -0 0
-0 -0 0
-0 -0 0
-0 -0 0
-0 -0 0
-0 -0 0
-0 -0 0
-0 -0 0
-0 -0 0
-0 -0 0
-0 -0 0
-0 -0 0
-1.0016646 0 1.041
-0.99766767 0 1.0420001
-0.99461371 0 1.044
-0.99154067 0 1.046
-0.99033517 0 1.0500001
-0.9890914 0 1.054
-0.9878096 0 1.0580001
-0.98741871 0 1.0630001
-0.98605591 0 1.067
-0.9846552 0 1.0710001
-0.98321635 0 1.075
-0.98173934 0 1.079
-0.97931921 0 1.082
-0.97597039 0 1.0840001
-0.97170663 0 1.085
-0 -0 0
-0 -0 0
-0 -0 0
-0 -0 0
-0 -0 0
-0 -0 0
-0 -0 0
-0 -0 0
-0.94228595 0 1.105
-0.93702674 0 1.105
-0.93008125 0 1.103
-0.92315465 0 1.1010001
-0.91624713 0 1.0990001
-0.90935856 0 1.097
-0.90248913 0 1.095
-0.89645821 0 1.0940001
-0.89125139 0 1.0940001
-0.88685447 0 1.095
-0.88244808 0 1.0960001
-0.87803209 0 1.097
-0.87360674 0 1.098
-0.86996263 0 1.1
-0.86551338 0 1.1010001
-0.86261737 0 1.1040001
-0.85891616 0 1.1060001
-0.85519588 0 1.108
-0.85145664 0 1.11
-0.84769839 0 1.1120001
-0.84467852 0 1.115
-0.84163022 0 1.118
-0.83855331 0 1.1210001
-0.83470452 0 1.123
-0.83009833 0 1.1240001
-0.82548243 0 1.125
-0 -0 0
-0 -0 0
-0 -0 0
-0 -0 0
-0 -0 0
-0 -0 0
-1.3847823 0 1.9770001
-1.3809385 0 1.9850001
-1.3770185 0 1.9930001
-1.3750808 0 2.0040002
-1.3716756 0 2.013
-1.3634483 0 2.0150001
-1.3760303 0 2.0480001
-1.3722874 0 2.0570002
-1.3810436 0 2.085
-1.3684897 0 2.0810001
-1.3873109 0 2.125
-1.3797896 0 2.1290002
-1.37995 0 2.1450002
-1.3703798 0 2.1460001
-1.3804481 0 2.1780002
-1.369453 0 2.177
-1.3503517 0 2.1630001
-1.3697948 0 2.2110002
-1.3623456 0 2.2160001
-1.3670492 0 2.2410002
-1.3563834 0 2.2410002
-1.361931 0 2.2680001
-1.3541152 0 2.273
-1.3627994 0 2.306
-1.3524106 0 2.3070002
-1.3646891 0 2.3470001
-1.3696662 0 2.375
-1.374377 0 2.4030001
-1.3703135 0 2.4160001
-1.3610646 0 2.4200001
-1.3679496 0 2.4530001
-1.3767322 0 2.49
-1.367074 0 2.4940002
-1.3785696 0 2.5370002
-1.3621858 0 2.529
-1.3570896 0 2.5420001
-1.3598063 0 2.5700002
-1.3549154 0 2.5840001
-1.3545676 0 2.6070001
-1.3637826 0 2.6490002
-1.3710676 0 2.6880002
-1.3744444 0 2.72
-1.3725109 0 2.7420001
-1.3753259 0 2.7740002
-1.3822556 0 2.8150001
-1.3790696 0 2.8360002
-1.3785728 0 2.8630002
-1.3787724 0 2.8920002
-1.382472 0 2.9290001
-1.3862867 0 2.9670002
-1.3957517 0 3.0180001
-1.4152589 0 3.0920002
-1.4331557 0 3.164
-1.4337837 0 3.1990001
-1.4460516 0 3.2610002
-1.4314085 0 3.2630002
-1.4106715 0 3.2510002
-1.3964862 0 3.2540002
-1.3793014 0 3.2500002
-1.3625743 0 3.2470002
-1.3462908 0 3.2450001
-1.3308465 0 3.2450001
-1.3149968 0 3.2440002
-1.299958 0 3.2450001
-1.2849095 0 3.2460001
-1.2694603 0 3.2460001
-1.2540114 0 3.2460001
-1.2385623 0 3.2460001
-1.2238669 0 3.2480001
-1.2080363 0 3.2470002
-1.1947862 0 3.2530003
-1.1803913 0 3.256
-1.164537 0 3.2550001
-1.14375 0 3.2400002
-1.1300707 0 3.2450001
-1.1115351 0 3.2360001
-1.0944399 0 3.2310002
-1.0773923 0 3.2260001
-1.0607218 0 3.2220001
-1.0392222 0 3.2030001
-1.0236582 0 3.2020001
-1.0077887 0 3.2
-0.99255848 0 3.2
-0.97732842 0 3.2
-0.96179771 0 3.1990001
-0.94627643 0 3.1980002
-0.93076473 0 3.1970003
-0.91526246 0 3.1960001
-0.90145946 0 3.2010002
-0.87404281 0 3.1570001
-0.84133095 0 3.0920002
-0.79399931 0 2.97
-0.75203037 0 2.8640001
-0.71828938 0 2.786
-0.69566631 0 2.7490001
-0.68034804 0 2.7400002
-0.66779429 0 2.7420001
-0.64471507 0 2.7
-0.63046062 0 2.6940002
-0.61511678 0 2.6830001
-0.60257179 0 2.684
-0.58935809 0 2.6820002
-0.57702327 0 2.684
-0.56403875 0 2.6830001
-0.55126923 0 2.6830001
-0.53890121 0 2.6850002
-0.52651405 0 2.687
-0.51372552 0 2.687
-0.50093699 0 2.687
-0.48814845 0 2.687
-0.47553682 0 2.6880002
-0.46274355 0 2.6880002
-0.45011762 0 2.6890001
-0.43715695 0 2.6880002
-0.42420578 0 2.687
-0.41141722 0 2.687
-0.39818361 0 2.684
-0.38526574 0 2.6830001
-0.37221861 0 2.6810002
-0.35932451 0 2.6800001
-0.34669864 0 2.6810002
-0.33393866 0 2.6810002
-0.32129848 0 2.6820002
-0.30864877 0 2.6830001
-0.29587924 0 2.6830001
-0.28332081 0 2.6850002
-0.27064255 0 2.6860001
-0.25776276 0 2.6850002
-0.24507499 0 2.6860001
-0.23220472 0 2.6850002
-0.21934396 0 2.684
-0.20595402 0 2.6760001
-0.1930012 0 2.6730001
-0.18014443 0 2.6710002
-0.16730665 0 2.6690001
-0.15454586 0 2.6680002
-0.14184774 0 2.6680002
-0.12914965 0 2.6680002
-0.11636423 0 2.6660001
-0.10387009 0 2.6710002
-0.091191821 0 2.6720002
-0.078562781 0 2.6750002
-0.065880574 0 2.677
-0.053238884 0 2.6820002
-0.040579777 0 2.6890001
-0.027947027 0 2.7050002
-0.015095107 0 2.7090001
-0.0022051129 0 2.7130001
0.010730851 0 2.7190001
0.023784868 0 2.7320001
