# .PCD v0.7 - Point Cloud Data file format
VERSION 0.7
FIELDS x y z
SIZE 4 4 4
TYPE F F F
COUNT 1 1 1
WIDTH 2330
HEIGHT 1
VIEWPOINT 0 0 0 1 0 0 0
POINTS 2330
DATA ascii
-0 -0 0
-3.0179899 0 3.2490001
-3.0080712 0 3.2550001
-2.9962568 0 3.2590001
-3.021904 0 3.3040001
-3.0362041 0 3.3370001
-3.0764382 0 3.3990002
-3.1313882 0 3.4780002
-3.1864812 0 3.5580001
-3.2283416 0 3.6240001
-3.2491944 0 3.6670001
-3.2317414 0 3.6670001
-3.2107825 0 3.6630001
-3.1924772 0 3.6620002
-3.1845853 0 3.6730001
-3.1438229 0 3.6460001
-3.1238976 0 3.6430001
-3.07586 0 3.6070001
-3.062933 0 3.6120002
-3.045742 0 3.6120002
-3.0855668 0 3.6800001
-3.0713871 0 3.6840003
-3.089498 0 3.7270002
-3.0734081 0 3.7290001
-3.0810628 0 3.7600002
-3.0419858 0 3.7340002
-3.0250242 0 3.7350001
-3.0056376 0 3.7330003
-2.9878707 0 3.7330003
-2.9716949 0 3.7350001
-2.9531276 0 3.7340002
-2.955795 0 3.7600002
-2.971498 0 3.8030002
-2.9867916 0 3.8460002
-2.9854674 0 3.8680003
-2.9847009 0 3.8910003
-2.9829528 0 3.9130001
-2.9643292 0 3.9130001
-2.9291441 0 3.8910003
-2.9106252 0 3.8910003
-2.875011 0 3.8680003
-2.8566017 0 3.8680003
-2.8381922 0 3.8680003
-2.8197827 0 3.8680003
-2.8180311 0 3.8910003
-2.8153405 0 3.9130001
-2.8295944 0 3.9590001
-2.8441203 0 4.006
-2.8596091 0 4.0550003
-2.8571203 0 4.079
-2.8377068 0 4.079
-2.8182931 0 4.079
-2.7988794 0 4.079
-2.7631123 0 4.0550003
-2.7438128 0 4.0550003
-2.707716 0 4.0300002
-2.6885357 0 4.0300002
-2.6693552 0 4.0300002
-2.6501746 0 4.0300002
-2.6309943 0 4.0300002
-2.6280162 0 4.0550003
-2.6087167 0 4.0550003
-2.604743 0 4.079
-2.5853293 0 4.079
-2.5816422 0 4.1040001
-2.5777171 0 4.1290002
-2.5741735 0 4.1550002
-2.5543978 0 4.1550002
-2.5346227 0 4.1550002
-2.5299788 0 4.1800003
-2.5100844 0 4.1800003
-2.4901903 0 4.1800003
-2.4702959 0 4.1800003
-2.4662292 0 4.2070003
-2.4462066 0 4.2070003
-2.4261837 0 4.2070003
-2.4210312 0 4.2330003
-2.4008846 0 4.2330003
-2.3959236 0 4.2600002
-2.4057622 0 4.3140001
-2.4007113 0 4.342
-2.3959424 0 4.3710003
-2.3903537 0 4.3990002
-2.369417 0 4.3990002
-2.3484805 0 4.3990002
-2.3428879 0 4.428
-2.306607 0 4.3990002
-2.2856705 0 4.3990002
-2.2647338 0 4.3990002
-2.2437971 0 4.3990002
-2.2228606 0 4.3990002
-2.2019238 0 4.3990002
-2.1953652 0 4.428
-2.1742904 0 4.428
-2.1532156 0 4.428
-2.1461051 0 4.4570003
-2.1248922 0 4.4570003
-2.1036797 0 4.4570003
-2.0964839 0 4.487
-2.0751283 0 4.487
-2.0675046 0 4.5170002
-2.0460064 0 4.5170002
-2.0384021 0 4.5480003
-2.0305028 0 4.579
-2.0223086 0 4.6100001
-2.0003676 0 4.6100001
-1.9784268 0 4.6100001
-1.956486 0 4.6100001
-1.9479736 0 4.6420002
-1.9258804 0 4.6420002
-1.9169112 0 4.6740003
-1.9080426 0 4.7070003
-1.89886 0 4.7400002
-1.8893633 0 4.7730002
-1.8936312 0 4.842
-1.8841077 0 4.8770003
-1.8746325 0 4.9130001
-1.8648144 0 4.9490004
-1.8278664 0 4.9130001
-1.8044833 0 4.9130001
-1.7680495 0 4.8770003
-1.7448379 0 4.8770003
-1.721626 0 4.8770003
-1.7109514 0 4.9130001
-1.6999342 0 4.9490004
-1.7014458 0 5.0230002
-1.6902304 0 5.0610003
-1.6914922 0 5.138
-1.6796919 0 5.177
-1.6678404 0 5.2170005
-1.6559229 0 5.2580004
-1.6308978 0 5.2580004
-1.5933509 0 5.2170005
-1.568521 0 5.2170005
-1.5318551 0 5.177
-0 -0 0
-0 -0 0
-0 -0 0
-0 -0 0
-0 -0 0
-0 -0 0
-0.68796074 0 2.6200001
-0.67600679 0 2.6220002
-0.66302139 0 2.6200001
-0.64980686 0 2.6170001
-0.63686436 0 2.615
-0.62417972 0 2.6140001
-0.61173862 0 2.6140001
-0.59975606 0 2.6160002
-0.58797896 0 2.6190002
-0.57639307 0 2.6230001
-0.56562901 0 2.631
-0.55457854 0 2.638
-0.54366696 0 2.6460001
-0.53207713 0 2.651
-0.5206356 0 2.6570001
-0.50894582 0 2.6620002
-0.49739486 0 2.6680002
-0.48524174 0 2.6710002
-0.47270626 0 2.6720002
-0.46033341 0 2.674
-0.44777414 0 2.6750002
-0.43504271 0 2.6750002
-0.42215341 0 2.674
-0.40912053 0 2.6720002
-0.3959583 0 2.6690001
-0.38268104 0 2.6650002
-0.36944187 0 2.661
-0.3561067 0 2.6560001
-0.34268978 0 2.6500001
-0.32933 0 2.6440001
-0.31602734 0 2.638
-0.30278179 0 2.6320002
-0.28948307 0 2.6250002
-0.27656752 0 2.6210001
-0.26258171 0 2.6060002
-0.24969867 0 2.6010001
-0.23677199 0 2.595
-0.22381593 0 2.5880001
-0.2111717 0 2.5840001
-0.19856553 0 2.5800002
-0.18592522 0 2.575
-0.17393953 0 2.5790002
-0 -0 0
-0 -0 0
-0 -0 0
-0 -0 0
-0 -0 0
-0 -0 0
-0 -0 0
-0.03953103 0 1.3460001
-0.033174083 0 1.348
-0.026738545 0 1.3470001
-0.020312525 0 1.3460001
-0.013896026 0 1.345
-0.0074946177 0 1.345
-0.0010923966 0 1.3440001
0.0053003058 0 1.3430001
0.011683489 0 1.342
0.018057154 0 1.3410001
0.024439525 0 1.3410001
0.030821897 0 1.3410001
0.037176523 0 1.34
0.043554131 0 1.34
0.049931746 0 1.34
0.056309357 0 1.34
0.062686972 0 1.34
0.06906458 0 1.34
0.075385898 0 1.3390001
0.081819803 0 1.34
0.088197418 0 1.34
0.094504453 0 1.3390001
0.10087731 0 1.3390001
0.10725015 0 1.3390001
0.11362301 0 1.3390001
0.11999586 0 1.3390001
0.12636872 0 1.3390001
0.13274157 0 1.3390001
0.13911442 0 1.3390001
0.14548726 0 1.3390001
0.15186013 0 1.3390001
0.15823297 0 1.3390001
0.16460583 0 1.3390001
0.17097868 0 1.3390001
0.17735153 0 1.3390001
0.18372437 0 1.3390001
0.19009724 0 1.3390001
0.1964701 0 1.3390001
0.20284294 0 1.3390001
0.20937203 0 1.34
0.21574965 0 1.34
0.22229302 0 1.3410001
0.22884591 0 1.342
0.23540834 0 1.3430001
0.24198028 0 1.3440001
0.24856171 0 1.345
0.25496313 0 1.345
0.26155889 0 1.3460001
0.26796502 0 1.3460001
0.27457505 0 1.3470001
0.28119457 0 1.348
0.28803697 0 1.35
0.29489845 0 1.3520001
0.30177891 0 1.3540001
0.30890608 0 1.3570001
0.3158294 0 1.3590001
0.32300892 0 1.3620001
0.32997504 0 1.3640001
0.33720693 0 1.3670001
0.3442159 0 1.3690001
0.35124394 0 1.3710001
0.35776907 0 1.3710001
0.36482564 0 1.373
0.37136033 0 1.373
0.377895 0 1.373
0 -0 0
0 -0 0
0 -0 0
0 -0 0
0 -0 0
0 -0 0
0 -0 0
1.0505229 0 3.3530002
1.0661632 0 3.3520002
1.0692037 0 3.3120003
1.0702255 0 3.2670002
1.0861068 0 3.2680001
1.0895247 0 3.2320001
1.105249 0 3.233
1.108851 0 3.1990001
1.1230222 0 3.1960001
1.1378771 0 3.1950002
1.1397301 0 3.1580002
1.1529319 0 3.1530001
1.1523807 0 3.1110001
1.1518048 0 3.0700002
1.1458994 0 3.016
1.1360177 0 2.9530001
1.1267047 0 2.8930001
1.1140611 0 2.8260002
1.1047695 0 2.7690001
1.0933203 0 2.7080002
1.087418 0 2.6620002
1.0790114 0 2.6110001
1.0897663 0 2.6070001
1.0848403 0 2.5660002
1.0936326 0 2.5580001
1.1084009 0 2.5640001
1.119293 0 2.5610001
1.1305981 0 2.559
1.1423309 0 2.5580001
1.1536028 0 2.5560002
1.1575582 0 2.5380001
0 -0 0
1.1640238 0 2.5
1.1740408 0 2.4960001
1.1840199 0 2.4920001
1.1747653 0 2.4480002
1.183993 0 2.4430001
1.1936628 0 2.4390001
1.2023059 0 2.4330001
1.210892 0 2.427
1.216399 0 2.4150002
1.2248423 0 2.4090002
1.2378472 0 2.4120002
1.2472552 0 2.4080002
1.2466933 0 2.3850002
1.2548795 0 2.3790002
1.264073 0 2.375
1.2769877 0 2.378
1.2796375 0 2.3620002
1.2897861 0 2.3600001
1.3037747 0 2.365
1.3083583 0 2.3530002
1.3178748 0 2.3500001
1.3279283 0 2.348
1.338533 0 2.3470001
1.3485532 0 2.345
1.3585545 0 2.3430002
1.3761362 0 2.3540001
1.3873398 0 2.3540001
1.4003259 0 2.3570001
1.4109449 0 2.3560002
1.4215544 0 2.355
1.4315462 0 2.3530002
1.442745 0 2.3530002
1.4341707 0 2.3210001
1.4383681 0 2.3100002
1.4368136 0 2.2900002
1.4363333 0 2.2720001
1.43186 0 2.2480001
1.4380671 0 2.2410002
1.4448541 0 2.2350001
1.4496304 0 2.2260001
1.4549769 0 2.2180002
1.4609082 0 2.2110002
1.4667726 0 2.204
1.4745812 0 2.2
1.4823519 0 2.1960001
1.4873655 0 2.1880002
1.4957253 0 2.1850002
1.5006101 0 2.177
1.5068071 0 2.171
1.5150434 0 2.1680002
1.5225474 0 2.164
1.5314301 0 2.1620002
1.5410067 0 2.161
1.5512918 0 2.161
1.5608544 0 2.1600001
1.5813179 0 2.174
1.5923971 0 2.1750002
1.6005381 0 2.1720002
1.6093923 0 2.1700001
1.6077775 0 2.154
1.6165271 0 2.1520002
1.6260133 0 2.151
1.6362507 0 2.151
1.6480192 0 2.1530001
1.6605769 0 2.1560001
1.6824626 0 2.171
1.6943549 0 2.1730001
1.7290162 0 2.204
1.7718651 0 2.2450001
1.8389248 0 2.3160002
1.90027 0 2.3790002
1.9646254 0 2.4450002
2.0207179 0 2.5
2.0334296 0 2.5010002
2.0469682 0 2.503
2.0654619 0 2.5110002
2.0774126 0 2.5110002
2.0893636 0 2.5110002
2.0996406 0 2.5090001
2.1107404 0 2.5080001
2.1252162 0 2.5110002
2.137167 0 2.5110002
2.1465504 0 2.5080001
2.1567655 0 2.506
2.1574423 0 2.493
2.1684375 0 2.4920001
2.1820478 0 2.4940002
2.1912789 0 2.4910002
2.1509528 0 2.4320002
2.160749 0 2.4300001
2.1696327 0 2.427
2.1784875 0 2.424
2.1873138 0 2.421
2.1970201 0 2.4190001
2.2057941 0 2.4160001
2.2172928 0 2.4160001
2.227869 0 2.4150002
2.2282357 0 2.4030001
2.2368765 0 2.4000001
2.2567303 0 2.4090002
2.2672544 0 2.4080002
2.2758758 0 2.4050002
2.2844691 0 2.4020002
2.2930336 0 2.3990002
2.3025303 0 2.3970001
2.304285 0 2.3870001
2.2972138 0 2.368
2.2772884 0 2.3360002
2.3168154 0 2.365
0 -0 0
0 -0 0
-0 -0 0
-0 -0 0
-0 -0 0
-0 -0 0
-0 -0 0
-0 -0 0
-0 -0 0
-0 -0 0
-0 -0 0
-0 -0 0
-0 -0 0
-0 -0 0
-0 -0 0
-0 -0 0
-0 -0 0
-0 -0 0
-0 -0 0
-0 -0 0
-0 -0 0
-2.9951732 0 3.2080002
-2.980834 0 3.2090001
-3.0108438 0 3.2580001
-2.9980958 0 3.2610002
-3.0228186 0 3.3050001
-3.0371139 0 3.3380001
-3.0764382 0 3.3990002
-3.1304879 0 3.4770002
-3.1837945 0 3.5550001
-3.2274508 0 3.6230001
-3.2491944 0 3.6670001
-3.2335041 0 3.6690001
-3.2300665 0 3.6850002
-3.2107847 0 3.6830001
-3.1871865 0 3.6760001
-3.1472719 0 3.6500001
-3.1273277 0 3.6470001
-3.103148 0 3.6390002
-3.0646288 0 3.6140001
-3.0482717 0 3.6150002
-3.0880821 0 3.6830001
-3.0730543 0 3.6860001
-3.089498 0 3.7270002
-3.0742326 0 3.7300003
-3.0572991 0 3.7310002
-3.0436151 0 3.7360001
-3.026644 0 3.7370002
-3.0072477 0 3.7350001
-2.9902716 0 3.7360001
-2.9708993 0 3.7340002
-2.9523368 0 3.7330003
-2.955795 0 3.7600002
-2.9543083 0 3.7810001
-2.9697065 0 3.8240001
-2.9684868 0 3.8460002
-2.9847009 0 3.8910003
-2.9829528 0 3.9130001
-2.9643292 0 3.9130001
-2.9291441 0 3.8910003
-2.9106252 0 3.8910003
-2.875011 0 3.8680003
-2.8566017 0 3.8680003
-2.8381922 0 3.8680003
-2.8197827 0 3.8680003
-2.8180311 0 3.8910003
-2.8153405 0 3.9130001
-2.8295944 0 3.9590001
-2.8441203 0 4.006
-2.8596091 0 4.0550003
-2.8403099 0 4.0550003
-2.8377068 0 4.079
-2.8182931 0 4.079
-2.7988794 0 4.079
-2.7794659 0 4.079
-2.7438128 0 4.0550003
-2.707716 0 4.0300002
-2.6885357 0 4.0300002
-2.6693552 0 4.0300002
-2.6501746 0 4.0300002
-2.6309943 0 4.0300002
-2.611814 0 4.0300002
-2.5926335 0 4.0300002
-2.5894175 0 4.0550003
-2.5853293 0 4.079
-2.5659156 0 4.079
-2.5621097 0 4.1040001
-2.5580654 0 4.1290002
-2.5543978 0 4.1550002
-2.5346227 0 4.1550002
-2.5299788 0 4.1800003
-2.5262978 0 4.2070003
-2.5062752 0 4.2070003
-2.4862523 0 4.2070003
-2.4662292 0 4.2070003
-2.4462066 0 4.2070003
-2.4106128 0 4.1800003
-2.3907185 0 4.1800003
-2.386138 0 4.2070003
-2.3661151 0 4.2070003
-2.3756485 0 4.2600002
-2.3703017 0 4.2870002
-2.3800461 0 4.342
-2.375139 0 4.3710003
-2.3543355 0 4.3710003
-2.3484805 0 4.3990002
-2.3275437 0 4.3990002
-2.306607 0 4.3990002
-2.2856705 0 4.3990002
-2.2647338 0 4.3990002
-2.2437971 0 4.3990002
-2.2228606 0 4.3990002
-2.2019238 0 4.3990002
-2.1953652 0 4.428
-2.1742904 0 4.428
-2.1673179 0 4.4570003
-2.1461051 0 4.4570003
-2.1248922 0 4.4570003
-2.1036797 0 4.4570003
-2.0964839 0 4.487
-2.0751283 0 4.487
-2.0537729 0 4.487
-2.0324175 0 4.487
-2.024508 0 4.5170002
-2.0030098 0 4.5170002
-1.9815116 0 4.5170002
-1.9734647 0 4.5480003
-1.9651228 0 4.579
-1.9433296 0 4.579
-1.9215361 0 4.579
-1.9126042 0 4.6100001
-1.9037873 0 4.6420002
-1.8946656 0 4.6740003
-1.8856401 0 4.7070003
-1.8893633 0 4.7730002
-1.8936312 0 4.842
-1.8841077 0 4.8770003
-1.8746325 0 4.9130001
-1.8648144 0 4.9490004
-1.8412602 0 4.9490004
-1.8044833 0 4.9130001
-1.7811004 0 4.9130001
-1.7577175 0 4.9130001
-1.7343343 0 4.9130001
-1.7109514 0 4.9130001
-1.6999342 0 4.9490004
-1.6889127 0 4.9860001
-1.6775393 0 5.0230002
-1.6786531 0 5.0990005
-1.6670383 0 5.138
-1.6550525 0 5.177
-1.6304131 0 5.177
-1.6057736 0 5.177
-1.5811341 0 5.177
-1.544769 0 5.138
-1.5087754 0 5.0990005
-0 -0 0
-0 -0 0
-0 -0 0
-0 -0 0
-0 -0 0
-0 -0 0
-0 -0 0
-0.67652237 0 2.6240001
-0.66352755 0 2.6220002
-0.64980686 0 2.6170001
-0.63710797 0 2.6160002
-0.6244185 0 2.615
-0.61197263 0 2.615
-0.5999853 0 2.6170001
-0.58820343 0 2.6200001
-0.57683259 0 2.6250002
-0.56605899 0 2.6330001
-0.55520922 0 2.641
-0.54407793 0 2.6480002
-0.53227788 0 2.6520002
-0.52083158 0 2.6580002
-0.50913697 0 2.6630001
-0.49758127 0 2.6690001
-0.48542342 0 2.6720002
-0.47306004 0 2.674
-0.46067774 0 2.6760001
-0.44794154 0 2.6760001
-0.43520534 0 2.6760001
-0.42231131 0 2.6750002
-0.40927362 0 2.6730001
-0.39610666 0 2.6700001
-0.38296822 0 2.6670001
-0.36958075 0 2.6620002
-0.3561067 0 2.6560001
-0.34281909 0 2.651
-0.32933 0 2.6440001
-0.31614715 0 2.6390002
-0.30266675 0 2.631
-0.28937277 0 2.6240001
-0.27614546 0 2.6170001
-0.26278323 0 2.608
-0.24979468 0 2.6020002
-0.23686324 0 2.5960002
-0.22398891 0 2.5900002
-0.2112534 0 2.585
-0.19864249 0 2.5810001
-0.18621404 0 2.5790002
-0.1742093 0 2.5830002
-0 -0 0
-0 -0 0
-0 -0 0
-0 -0 0
-0 -0 0
-0 -0 0
-0 -0 0
-0.03953103 0 1.3460001
-0.033174083 0 1.348
-0.026758395 0 1.348
-0.020327618 0 1.3470001
-0.013906358 0 1.3460001
-0.0074946177 0 1.345
-0.0010923966 0 1.3440001
0.0053003058 0 1.3430001
0.011683489 0 1.342
0.018057154 0 1.3410001
0.024439525 0 1.3410001
0.030821897 0 1.3410001
0.037176523 0 1.34
0.043554131 0 1.34
0.049931746 0 1.34
0.056309357 0 1.34
0.062686972 0 1.34
0.06906458 0 1.34
0.075385898 0 1.3390001
0.081758745 0 1.3390001
0.088131599 0 1.3390001
0.094504453 0 1.3390001
0.10087731 0 1.3390001
0.10725015 0 1.3390001
0.11362301 0 1.3390001
0.11999586 0 1.3390001
0.12636872 0 1.3390001
0.13274157 0 1.3390001
0.13911442 0 1.3390001
0.14548726 0 1.3390001
0.15186013 0 1.3390001
0.15823297 0 1.3390001
0.16460583 0 1.3390001
0.17097868 0 1.3390001
0.17735153 0 1.3390001
0.18372437 0 1.3390001
0.19009724 0 1.3390001
0.1964701 0 1.3390001
0.20284294 0 1.3390001
0.20937203 0 1.34
0.21574965 0 1.34
0.22229302 0 1.3410001
0.22884591 0 1.342
0.23540834 0 1.3430001
0.24198028 0 1.3440001
0.24856171 0 1.345
0.2551527 0 1.3460001
0.26155889 0 1.3460001
0.26816413 0 1.3470001
0.27477887 0 1.348
0.28140318 0 1.3490001
0.28825033 0 1.3510001
0.29511654 0 1.353
0.30200177 0 1.355
0.30890608 0 1.3570001
0.31606176 0 1.36
0.32300892 0 1.3620001
0.32997504 0 1.3640001
0.33696026 0 1.3660001
0.3442159 0 1.3690001
0.35124394 0 1.3710001
0.35803005 0 1.3720001
0.36482564 0 1.373
0.37136033 0 1.373
0.377895 0 1.373
0 -0 0
0 -0 0
0 -0 0
0 -0 0
0 -0 0
0 -0 0
0 -0 0
1.042377 0 3.3270001
1.0578934 0 3.3260002
1.0569363 0 3.2740002
1.0702255 0 3.2670002
1.0854421 0 3.2660003
1.0895247 0 3.2320001
1.1038816 0 3.2290001
1.1095443 0 3.2010002
1.1230222 0 3.1960001
1.1378771 0 3.1950002
1.1408128 0 3.1610003
1.1536634 0 3.1550002
1.1527511 0 3.1120002
1.1518048 0 3.0700002
1.1455195 0 3.0150001
1.1364025 0 2.9540002
1.1267047 0 2.8930001
1.1144553 0 2.8270001
1.1055675 0 2.7710001
1.0949352 0 2.7120001
1.0886434 0 2.6650002
1.0905826 0 2.6390002
1.0893483 0 2.6060002
1.0869541 0 2.5710001
1.0983354 0 2.569
1.1096978 0 2.5670002
1.120604 0 2.5640001
1.1319236 0 2.562
1.1432241 0 2.5600002
1.1545055 0 2.5580001
1.1557338 0 2.5340002
1.1558121 0 2.5080001
1.1635582 0 2.4990001
1.1740408 0 2.4960001
1.1840199 0 2.4920001
1.1747653 0 2.4480002
1.1844777 0 2.444
1.1941521 0 2.4400001
1.2028 0 2.434
1.2118899 0 2.4290001
1.2148879 0 2.4120002
1.2238253 0 2.4070001
1.2373339 0 2.411
1.2467371 0 2.4070001
1.2461704 0 2.3840001
1.2543519 0 2.378
1.2635409 0 2.3740001
1.2769877 0 2.378
1.2796375 0 2.3620002
1.2886931 0 2.358
1.2999158 0 2.358
1.3094703 0 2.355
1.3178748 0 2.3500001
1.3279283 0 2.348
1.338533 0 2.3470001
1.3485532 0 2.345
1.3585545 0 2.3430002
1.3761362 0 2.3540001
1.3873398 0 2.3540001
1.3991376 0 2.355
1.4097471 0 2.3540001
1.4203472 0 2.3530002
1.4303293 0 2.3510001
1.4421318 0 2.352
1.4335529 0 2.3200002
1.4396133 0 2.312
1.4336765 0 2.2850001
1.4375978 0 2.2740002
1.430586 0 2.2460001
1.4342169 0 2.2350001
1.4409753 0 2.2290001
1.448328 0 2.2240002
1.4523529 0 2.214
1.458926 0 2.2080002
1.4654417 0 2.2020001
1.4725704 0 2.197
1.4810019 0 2.194
1.4866855 0 2.187
1.4950407 0 2.184
1.5006101 0 2.177
1.5081953 0 2.1730001
1.5150434 0 2.1680002
1.5225474 0 2.164
1.5307217 0 2.161
1.5395806 0 2.1590002
1.5491382 0 2.158
1.5594091 0 2.158
1.5813179 0 2.174
1.5923971 0 2.1750002
1.5990644 0 2.1700001
1.6086507 0 2.1690001
1.6167345 0 2.1660001
1.625541 0 2.164
1.6252574 0 2.1500001
1.6354901 0 2.1500001
1.6472538 0 2.1520002
1.6598067 0 2.1550002
1.672388 0 2.158
1.6943549 0 2.1730001
1.7282318 0 2.2030001
1.7718651 0 2.2450001
1.8309846 0 2.306
1.8986725 0 2.3770001
1.9630183 0 2.4430001
2.0191014 0 2.4980001
2.0334296 0 2.5010002
2.0461504 0 2.5020001
2.0580587 0 2.5020001
2.0716214 0 2.5040002
2.0860353 0 2.5070002
2.0954566 0 2.5040002
2.1065323 0 2.503
2.1032107 0 2.4850001
2.1150379 0 2.4850001
2.1242974 0 2.4820001
2.1335282 0 2.4790001
2.1557117 0 2.4910002
2.1327612 0 2.4510002
2.1339273 0 2.4390001
2.1384981 0 2.4310002
2.1491838 0 2.4300001
2.1589708 0 2.4280002
2.1687386 0 2.4260001
2.1784875 0 2.424
2.1882174 0 2.4220002
2.1997447 0 2.4220002
2.208533 0 2.4190001
2.220046 0 2.4190001
2.2260239 0 2.4130001
2.2402904 0 2.4160001
2.2499249 0 2.414
2.2595406 0 2.4120002
2.2700787 0 2.411
2.2787149 0 2.4080002
2.2873223 0 2.4050002
2.2959013 0 2.4020002
2.3044515 0 2.3990002
2.3091118 0 2.3920002
2.2943034 0 2.365
2.309459 0 2.3690002
0 -0 0
0 -0 0
0 -0 0
-0 -0 0
-0 -0 0
-0 -0 0
-0 -0 0
-0 -0 0
-0 -0 0
-0 -0 0
-0 -0 0
-0 -0 0
-0 -0 0
-0 -0 0
-0 -0 0
-0 -0 0
-0 -0 0
-0 -0 0
-0 -0 0
-0 -0 0
-0 -0 0
-2.9653974 0 3.1600001
-2.9951732 0 3.2080002
-3.0105586 0 3.2410002
-3.0145402 0 3.2620001
-3.0008538 0 3.2640002
-3.0237334 0 3.3060002
-3.0380239 0 3.3390002
-3.0854893 0 3.4090002
-3.1304879 0 3.4770002
-3.181108 0 3.5520003
-3.2265601 0 3.6220002
-3.2500806 0 3.6680002
-3.2361481 0 3.6720002
-3.2274368 0 3.6820002
-3.2081692 0 3.6800001
-3.1863196 0 3.6750002
-3.1464097 0 3.6490002
-3.1281853 0 3.6480002
-3.1057065 0 3.6420002
-3.1036363 0 3.6600001
-3.0820007 0 3.6550002
-3.0830514 0 3.6770003
-3.0713871 0 3.6840003
-3.0886691 0 3.7260001
-3.0725842 0 3.7280002
-3.0556602 0 3.7290001
-3.0395417 0 3.7310002
-2.9812889 0 3.6810002
-3.0024168 0 3.7290001
-2.9582558 0 3.6960001
-2.9693081 0 3.7320001
-2.9507551 0 3.7310002
-2.9337838 0 3.7320001
-2.9378998 0 3.7600002
-2.953398 0 3.8030002
-2.9684868 0 3.8460002
-2.9670582 0 3.8680003
-2.966182 0 3.8910003
-2.9643292 0 3.9130001
-2.9291441 0 3.8910003
-2.8934205 0 3.8680003
-2.875011 0 3.8680003
-2.8566017 0 3.8680003
-2.8220494 0 3.8460002
-2.8197827 0 3.8680003
-2.8013735 0 3.8680003
-2.8153405 0 3.9130001
-2.8131557 0 3.9360001
-2.8441203 0 4.006
-2.8596091 0 4.0550003
-2.8403099 0 4.0550003
-2.8377068 0 4.079
-2.8182931 0 4.079
-2.8160336 0 4.1040001
-2.7794659 0 4.079
-2.7600522 0 4.079
-2.7245133 0 4.0550003
-2.705214 0 4.0550003
-2.6693552 0 4.0300002
-2.6501746 0 4.0300002
-2.6309943 0 4.0300002
-2.611814 0 4.0300002
-2.5926335 0 4.0300002
-2.5734532 0 4.0300002
-2.570118 0 4.0550003
-2.5659156 0 4.079
-2.5465021 0 4.079
-2.5580654 0 4.1290002
-2.5543978 0 4.1550002
-2.5498734 0 4.1800003
-2.5463207 0 4.2070003
-2.5262978 0 4.2070003
-2.5062752 0 4.2070003
-2.4862523 0 4.2070003
-2.4662292 0 4.2070003
-2.4305072 0 4.1800003
-2.4106128 0 4.1800003
-2.3764198 0 4.1550002
-2.3566444 0 4.1550002
-2.3509297 0 4.1800003
-2.3460922 0 4.2070003
-2.3553731 0 4.2600002
-2.3498981 0 4.2870002
-2.3593807 0 4.342
-2.3387153 0 4.342
-2.3335323 0 4.3710003
-2.3127289 0 4.3710003
-2.306607 0 4.3990002
-2.2856705 0 4.3990002
-2.2647338 0 4.3990002
-2.2437971 0 4.3990002
-2.2228606 0 4.3990002
-2.2164397 0 4.428
-2.1953652 0 4.428
-2.1742904 0 4.428
-2.1532156 0 4.428
-2.1461051 0 4.4570003
-2.1248922 0 4.4570003
-2.1036797 0 4.4570003
-2.0824671 0 4.4570003
-2.0751283 0 4.487
-2.0537729 0 4.487
-2.0324175 0 4.487
-2.0110619 0 4.487
-1.9764035 0 4.4570003
-1.9683511 0 4.487
-1.9469955 0 4.487
-1.9256401 0 4.487
-1.9170167 0 4.5170002
-1.9085274 0 4.5480003
-1.8868816 0 4.5480003
-1.8906634 0 4.6100001
-1.881694 0 4.6420002
-1.8856401 0 4.7070003
-1.8893633 0 4.7730002
-1.8936312 0 4.842
-1.8841077 0 4.8770003
-1.8746325 0 4.9130001
-1.8648144 0 4.9490004
-1.8412602 0 4.9490004
-1.8044833 0 4.9130001
-1.7811004 0 4.9130001
-1.7577175 0 4.9130001
-1.721626 0 4.8770003
-1.7109514 0 4.9130001
-1.6999342 0 4.9490004
-1.6763798 0 4.9490004
-1.6775393 0 5.0230002
-1.6536329 0 5.0230002
-1.6543847 0 5.0990005
-1.6425844 0 5.138
-1.6304131 0 5.177
-1.6057736 0 5.177
-1.5692229 0 5.138
-1.5330436 0 5.0990005
-1.4975312 0 5.0610003
-0 -0 0
-0 -0 0
-0 -0 0
-0 -0 0
-0 -0 0
-0 -0 0
-0 -0 0
-0.67678022 0 2.6250002
-0.66378057 0 2.6230001
-0.65030348 0 2.6190002
-0.63710797 0 2.6160002
-0.6244185 0 2.615
-0.61197263 0 2.615
-0.5999853 0 2.6170001
-0.58842796 0 2.6210001
-0.5770523 0 2.6260002
-0.56627393 0 2.6340001
-0.55562973 0 2.6430001
-0.54448885 0 2.6500001
-0.53267926 0 2.654
-0.52122343 0 2.6600001
-0.5099017 0 2.6670001
-0.49795416 0 2.6710002
-0.48578674 0 2.674
-0.47341388 0 2.6760001
-0.46102205 0 2.6780002
-0.44827634 0 2.6780002
-0.4355306 0 2.6780002
-0.42262703 0 2.677
-0.40957987 0 2.6750002
-0.39640337 0 2.6720002
-0.38311183 0 2.6680002
-0.36971956 0 2.6630001
-0.35637486 0 2.6580002
-0.34307775 0 2.6530001
-0.32933 0 2.6440001
-0.31614715 0 2.6390002
-0.30266675 0 2.631
-0.2892625 0 2.6230001
-0.27603993 0 2.6160002
-0.26278323 0 2.608
-0.24979468 0 2.6020002
-0.23686324 0 2.5960002
-0.22398891 0 2.5900002
-0.2112534 0 2.585
-0.19864249 0 2.5810001
-0.18614182 0 2.5780001
-0.1740744 0 2.5810001
-0 -0 0
-0 -0 0
-0 -0 0
-0 -0 0
-0 -0 0
-0 -0 0
-0 -0 0
-0.03953103 0 1.3460001
-0.033174083 0 1.348
-0.026758395 0 1.348
-0.020342708 0 1.348
-0.01391669 0 1.3470001
-0.0075001903 0 1.3460001
-0.0010932094 0 1.345
0.0053042527 0 1.3440001
0.011692195 0 1.3430001
0.01807062 0 1.342
0.024439525 0 1.3410001
0.030821897 0 1.3410001
0.037176523 0 1.34
0.043554131 0 1.34
0.049931746 0 1.34
0.056309357 0 1.34
0.062686972 0 1.34
0.06906458 0 1.34
0.075385898 0 1.3390001
0.081758745 0 1.3390001
0.088131599 0 1.3390001
0.094504453 0 1.3390001
0.10087731 0 1.3390001
0.10725015 0 1.3390001
0.11362301 0 1.3390001
0.11999586 0 1.3390001
0.12636872 0 1.3390001
0.13274157 0 1.3390001
0.13911442 0 1.3390001
0.14548726 0 1.3390001
0.15186013 0 1.3390001
0.15823297 0 1.3390001
0.16460583 0 1.3390001
0.17097868 0 1.3390001
0.17735153 0 1.3390001
0.18372437 0 1.3390001
0.19009724 0 1.3390001
0.1964701 0 1.3390001
0.20284294 0 1.3390001
0.20937203 0 1.34
0.21591066 0 1.3410001
0.22229302 0 1.3410001
0.22884591 0 1.342
0.23540834 0 1.3430001
0.24198028 0 1.3440001
0.24856171 0 1.345
0.2551527 0 1.3460001
0.2617532 0 1.3470001
0.26836318 0 1.348
0.27498275 0 1.3490001
0.28161177 0 1.35
0.28846371 0 1.3520001
0.29533467 0 1.3540001
0.30222467 0 1.3560001
0.30913371 0 1.358
0.31606176 0 1.36
0.32300892 0 1.3620001
0.32997504 0 1.3640001
0.33720693 0 1.3670001
0.3442159 0 1.3690001
0.35124394 0 1.3710001
0.35803005 0 1.3720001
0.36482564 0 1.373
0.37136033 0 1.373
0.377895 0 1.373
0 -0 0
0 -0 0
0 -0 0
0 -0 0
0 -0 0
0 -0 0
0 -0 0
1.0310979 0 3.2910001
1.0461249 0 3.2890003
1.0579047 0 3.2770002
1.0695703 0 3.2650001
1.084445 0 3.2630002
1.0898619 0 3.233
1.1035397 0 3.2280002
1.1112773 0 3.2060001
1.1233736 0 3.1970003
1.1368086 0 3.1920002
1.1483917 0 3.1820002
1.1554916 0 3.1600001
1.1538624 0 3.1150002
1.1525551 0 3.072
1.1455195 0 3.0150001
1.1371719 0 2.9560001
1.1274837 0 2.8950002
1.1152438 0 2.8290002
1.1063654 0 2.7730002
1.0965501 0 2.7160001
1.0894604 0 2.6670001
1.0918224 0 2.6420002
1.0893483 0 2.6060002
1.0873768 0 2.572
1.0991905 0 2.5710001
1.1105624 0 2.569
1.1214782 0 2.5660002
1.1323655 0 2.5630002
1.1436707 0 2.5610001
1.1549568 0 2.559
1.1534534 0 2.529
1.156273 0 2.5090001
1.1630926 0 2.4980001
1.1735705 0 2.4950001
1.1835448 0 2.4910002
1.1747653 0 2.4480002
1.1844777 0 2.444
1.1941521 0 2.4400001
1.2028 0 2.434
1.2118899 0 2.4290001
1.2148879 0 2.4120002
1.2238253 0 2.4070001
1.2373339 0 2.411
1.2462192 0 2.4060001
1.2451251 0 2.3820002
1.2548795 0 2.3790002
1.264073 0 2.375
1.2764508 0 2.3770001
1.2790956 0 2.3610001
1.2881466 0 2.3570001
1.2988133 0 2.3560002
1.3089143 0 2.3540001
1.317314 0 2.3490002
1.3273628 0 2.3470001
1.3373923 0 2.345
1.3474032 0 2.3430002
1.3579745 0 2.342
1.3755516 0 2.3530002
1.3867506 0 2.3530002
1.3973553 0 2.352
1.4079505 0 2.3510001
1.4179327 0 2.3490002
1.4278958 0 2.3470001
1.4231241 0 2.3210001
1.4329349 0 2.319
1.4396133 0 2.312
1.4311668 0 2.2810001
1.4375978 0 2.2740002
1.4286752 0 2.243
1.4348584 0 2.2360001
1.4513189 0 2.2450001
1.4587475 0 2.24
1.4503851 0 2.2110002
1.4576044 0 2.2060001
1.4647763 0 2.2010002
1.47123 0 2.1950002
1.4789768 0 2.1910002
1.4853261 0 2.1850002
1.4923025 0 2.1800001
1.4985422 0 2.174
1.5061131 0 2.1700001
1.5108504 0 2.1620002
1.5211402 0 2.1620002
1.5293051 0 2.1590002
1.5381544 0 2.1570001
1.5469848 0 2.1550002
1.5565187 0 2.154
1.5645882 0 2.151
1.5748258 0 2.151
1.588011 0 2.1550002
1.6064258 0 2.1660001
1.6152416 0 2.164
1.6240388 0 2.1620002
1.6335726 0 2.161
1.6438576 0 2.161
1.6556737 0 2.1630001
1.6590364 0 2.154
1.671613 0 2.1570001
1.6927953 0 2.171
1.7274473 0 2.2020001
1.771076 0 2.2440002
1.8301905 0 2.3050001
1.8930811 0 2.3700001
1.9678395 0 2.4490001
2.0191014 0 2.4980001
2.0358689 0 2.5040002
2.0494218 0 2.506
2.0572362 0 2.5010002
2.0707941 0 2.503
2.083539 0 2.5040002
2.0929461 0 2.5010002
2.1023245 0 2.4980001
2.1006715 0 2.4820001
2.0946109 0 2.4610002
2.1029003 0 2.457
2.1120124 0 2.4540002
2.1219611 0 2.4520001
2.1023054 0 2.4160001
2.1111794 0 2.4130001
2.1200247 0 2.4100001
2.1350327 0 2.414
2.1465218 0 2.414
2.1642687 0 2.421
2.180285 0 2.4260001
2.190928 0 2.4250002
2.2042859 0 2.427
2.2121851 0 2.4230001
2.2209637 0 2.4200001
2.2306366 0 2.4180002
2.2421451 0 2.4180002
2.2517889 0 2.4160001
2.2614141 0 2.414
2.2719619 0 2.4130001
2.2806072 0 2.4100001
2.2882733 0 2.4060001
2.2968569 0 2.4030001
2.3054121 0 2.4000001
2.3120079 0 2.3950002
2.3001242 0 2.3710001
2.3123837 0 2.3720002
0 -0 0
0 -0 0
0 -0 0
-0 -0 0
-0 -0 0
-0 -0 0
-0 -0 0
-0 -0 0
-0 -0 0
-0 -0 0
-0 -0 0
-0 -0 0
-0 -0 0
-0 -0 0
-0 -0 0
-0 -0 0
-0 -0 0
-0 -0 0
-0 -0 0
-2.9585073 0 3.1210001
-2.9662895 0 3.1450002
-2.9935498 0 3.1900001
-2.9989078 0 3.2120001
-3.0114875 0 3.2420001
-3.0542781 0 3.3050001
-3.0394678 0 3.3060002
-3.0722082 0 3.3590002
-3.0844266 0 3.3900001
-3.1099269 0 3.4360001
-3.133189 0 3.4800003
-3.1784213 0 3.5490003
-3.2033987 0 3.5960002
-3.2243845 0 3.6390002
-3.2370293 0 3.6730001
-3.2256837 0 3.6800001
-3.205554 0 3.6770003
-3.1837184 0 3.6720002
-3.1472719 0 3.6500001
-3.1299002 0 3.6500001
-3.1099701 0 3.6470001
-3.1061802 0 3.6630001
-3.0912764 0 3.6660001
-3.0813744 0 3.6750002
-3.0680521 0 3.6800001
-3.0521953 0 3.6820002
-3.0338471 0 3.6810002
-3.0155082 0 3.6800001
-2.9971788 0 3.6790001
-2.9885781 0 3.6900001
-2.955718 0 3.6710002
-2.9550543 0 3.6920002
-2.9374828 0 3.6920002
-2.9491732 0 3.7290001
-2.9322116 0 3.7300003
-2.9378998 0 3.7600002
-2.9363127 0 3.7810001
-2.9684868 0 3.8460002
-2.9670582 0 3.8680003
-2.966182 0 3.8910003
-2.9476631 0 3.8910003
-2.9291441 0 3.8910003
-2.8934205 0 3.8680003
-2.875011 0 3.8680003
-2.8566017 0 3.8680003
-2.8220494 0 3.8460002
-2.8197827 0 3.8680003
-2.8180311 0 3.8910003
-2.8153405 0 3.9130001
-2.8131557 0 3.9360001
-2.8277912 0 3.9830003
-2.841979 0 4.0300002
-2.8403099 0 4.0550003
-2.8377068 0 4.079
-2.8355663 0 4.1040001
-2.8160336 0 4.1040001
-2.7965012 0 4.1040001
-2.7600522 0 4.079
-2.7406385 0 4.079
-2.705214 0 4.0550003
-2.6859145 0 4.0550003
-2.666615 0 4.0550003
-2.6309943 0 4.0300002
-2.611814 0 4.0300002
-2.5926335 0 4.0300002
-2.5734532 0 4.0300002
-2.570118 0 4.0550003
-2.5508184 0 4.0550003
-2.5465021 0 4.079
-2.542577 0 4.1040001
-2.5384138 0 4.1290002
-2.5498734 0 4.1800003
-2.5463207 0 4.2070003
-2.5262978 0 4.2070003
-2.5062752 0 4.2070003
-2.4862523 0 4.2070003
-2.4662292 0 4.2070003
-2.4305072 0 4.1800003
-2.3961952 0 4.1550002
-2.3764198 0 4.1550002
-2.3566444 0 4.1550002
-2.3368692 0 4.1550002
-2.3310354 0 4.1800003
-2.3260694 0 4.2070003
-2.3202984 0 4.2330003
-2.3148232 0 4.2600002
-2.3090909 0 4.2870002
-2.3031018 0 4.3140001
-2.2973845 0 4.342
-2.2919254 0 4.3710003
-2.2711222 0 4.3710003
-2.2647338 0 4.3990002
-2.258589 0 4.428
-2.2375145 0 4.428
-2.2164397 0 4.428
-2.1953652 0 4.428
-2.1742904 0 4.428
-2.1532156 0 4.428
-2.1461051 0 4.4570003
-2.1248922 0 4.4570003
-2.1036797 0 4.4570003
-2.0964839 0 4.487
-2.0751283 0 4.487
-2.0400417 0 4.4570003
-2.0188289 0 4.4570003
-1.9976162 0 4.4570003
-1.9635437 0 4.428
-1.942469 0 4.428
-1.9213943 0 4.428
-1.9127654 0 4.4570003
-1.9042847 0 4.487
-1.8829291 0 4.487
-1.8740202 0 4.5170002
-1.8779495 0 4.579
-1.8687223 0 4.6100001
-1.8724202 0 4.6740003
-1.8763005 0 4.7400002
-1.8803344 0 4.8080001
-1.8705863 0 4.842
-1.8608961 0 4.8770003
-1.8512493 0 4.9130001
-1.8278664 0 4.9130001
-1.8044833 0 4.9130001
-1.7680495 0 4.8770003
-1.7448379 0 4.8770003
-1.721626 0 4.8770003
-1.6984144 0 4.8770003
-1.6752028 0 4.8770003
-1.6641854 0 4.9130001
-1.6528255 0 4.9490004
-1.641452 0 4.9860001
-1.6297263 0 5.0230002
-1.6301166 0 5.0990005
-1.6181307 0 5.138
-1.5936767 0 5.138
-1.5573119 0 5.0990005
-1.5216187 0 5.0610003
-1.4862871 0 5.0230002
-0 -0 0
-0 -0 0
-0 -0 0
-0 -0 0
-0 -0 0
-0 -0 0
-0 -0 0
-0.67729586 0 2.6270001
-0.66403365 0 2.6240001
-0.65080005 0 2.6210001
-0.63735145 0 2.6170001
-0.62465733 0 2.6160002
-0.6122067 0 2.6160002
-0.5999853 0 2.6170001
-0.58842796 0 2.6210001
-0.5770523 0 2.6260002
-0.56648898 0 2.6350002
-0.55605018 0 2.6450002
-0.54489976 0 2.6520002
-0.53348213 0 2.6580002
-0.52181131 0 2.6630001
-0.51047528 0 2.6700001
-0.4985134 0 2.674
-0.48615009 0 2.6760001
-0.47394463 0 2.6790001
-0.46153849 0 2.6810002
-0.44877851 0 2.6810002
-0.43601853 0 2.6810002
-0.42294279 0 2.6790001
-0.40988609 0 2.677
-0.39670005 0 2.674
-0.38339901 0 2.6700001
-0.36999723 0 2.6650002
-0.35677707 0 2.661
-0.34346569 0 2.6560001
-0.32957914 0 2.6460001
-0.31638673 0 2.641
-0.30266675 0 2.631
-0.28948307 0 2.6250002
-0.2759344 0 2.615
-0.26278323 0 2.608
-0.24979468 0 2.6020002
-0.23686324 0 2.5960002
-0.22398891 0 2.5900002
-0.2112534 0 2.585
-0.19864249 0 2.5810001
-0.18606962 0 2.5770001
-0.17333251 0 2.5700002
-0 -0 0
-0 -0 0
-0 -0 0
-0 -0 0
-0 -0 0
-0 -0 0
-0 -0 0
-0 -0 0
-0.033174083 0 1.348
-0.026758395 0 1.348
-0.020342708 0 1.348
-0.01391669 0 1.3470001
-0.0075001903 0 1.3460001
-0.0010932094 0 1.345
0.0053042527 0 1.3440001
0.011692195 0 1.3430001
0.018084085 0 1.3430001
0.024457749 0 1.342
0.030821897 0 1.3410001
0.037204269 0 1.3410001
0.043554131 0 1.34
0.049931746 0 1.34
0.056309357 0 1.34
0.062686972 0 1.34
0.06906458 0 1.34
0.075385898 0 1.3390001
0.081758745 0 1.3390001
0.088131599 0 1.3390001
0.094504453 0 1.3390001
0.10087731 0 1.3390001
0.10725015 0 1.3390001
0.11362301 0 1.3390001
0.11999586 0 1.3390001
0.12636872 0 1.3390001
0.13274157 0 1.3390001
0.13911442 0 1.3390001
0.14548726 0 1.3390001
0.15186013 0 1.3390001
0.15823297 0 1.3390001
0.16460583 0 1.3390001
0.17097868 0 1.3390001
0.17735153 0 1.3390001
0.18372437 0 1.3390001
0.19009724 0 1.3390001
0.1964701 0 1.3390001
0.20284294 0 1.3390001
0.20937203 0 1.34
0.21591066 0 1.3410001
0.22245878 0 1.342
0.22901644 0 1.3430001
0.23558363 0 1.3440001
0.24216032 0 1.345
0.24874653 0 1.3460001
0.25534227 0 1.3470001
0.26194751 0 1.348
0.26856229 0 1.3490001
0.27518657 0 1.35
0.28182039 0 1.3510001
0.28867707 0 1.353
0.29533467 0 1.3540001
0.30222467 0 1.3560001
0.30913371 0 1.358
0.31606176 0 1.36
0.32300892 0 1.3620001
0.32997504 0 1.3640001
0.33720693 0 1.3670001
0.3442159 0 1.3690001
0.35124394 0 1.3710001
0.35803005 0 1.3720001
0.36455995 0 1.3720001
0.37108988 0 1.3720001
0.37761977 0 1.3720001
0 -0 0
0 -0 0
0 -0 0
0 -0 0
0 -0 0
0 -0 0
0 -0 0
1.0304713 0 3.2890003
1.041672 0 3.2750001
1.0582275 0 3.2780001
1.0705531 0 3.2680001
1.0834481 0 3.2600002
1.0928959 0 3.2420001
1.1025141 0 3.2250001
1.111624 0 3.2070003
1.1279416 0 3.21
1.1364526 0 3.1910002
1.1429781 0 3.1670001
1.1562229 0 3.1620002
1.1549736 0 3.118
1.1536807 0 3.075
1.1462795 0 3.0170002
1.1383259 0 2.9590001
1.1270941 0 2.8940001
1.1160322 0 2.8310001
1.1075623 0 2.776
1.098165 0 2.72
1.095588 0 2.6820002
1.0934755 0 2.6460001
1.0893483 0 2.6060002
1.1004829 0 2.6030002
1.0996181 0 2.572
1.1109948 0 2.5700002
1.1219152 0 2.5670002
1.1328071 0 2.5640001
1.1436707 0 2.5610001
1.1549568 0 2.559
1.1520851 0 2.526
1.1558121 0 2.5080001
1.1626271 0 2.4970002
1.1735705 0 2.4950001
1.1830696 0 2.49
1.1747653 0 2.4480002
1.1844777 0 2.444
1.1936628 0 2.4390001
1.2023059 0 2.4330001
1.210892 0 2.427
1.2158952 0 2.414
1.2243339 0 2.4080002
1.2368208 0 2.4100001
1.2462192 0 2.4060001
1.2446022 0 2.381
1.252242 0 2.3740001
1.2656698 0 2.378
1.2748398 0 2.3740001
1.2780122 0 2.3590002
1.286507 0 2.3540001
1.2977107 0 2.3540001
1.3066901 0 2.3500001
1.3161924 0 2.3470001
1.3262316 0 2.345
1.3362517 0 2.3430002
1.3462529 0 2.3410001
1.3562351 0 2.3390002
1.3737978 0 2.3500001
1.3849825 0 2.3500001
1.3949789 0 2.348
1.405555 0 2.3470001
1.4149145 0 2.3440001
1.4248538 0 2.342
1.4237372 0 2.322
1.4329349 0 2.319
1.4115933 0 2.2670002
1.4305394 0 2.2800002
1.4179997 0 2.243
1.4280382 0 2.2420001
1.4367837 0 2.2390001
1.4442078 0 2.2340002
1.4580964 0 2.2390001
1.451041 0 2.2120001
1.4543008 0 2.2010002
1.4621141 0 2.197
1.4698894 0 2.1930001
1.4783018 0 2.1900001
1.4832867 0 2.1820002
1.4909335 0 2.1780002
1.497853 0 2.1730001
1.505419 0 2.1690001
1.5115491 0 2.1630001
1.5183258 0 2.158
1.5278884 0 2.1570001
1.536015 0 2.154
1.5448313 0 2.1520002
1.5536282 0 2.1500001
1.5609514 0 2.1460001
1.5748258 0 2.151
1.579905 0 2.1440001
1.5878843 0 2.141
1.5965813 0 2.1390002
1.6030058 0 2.1340001
1.6131624 0 2.1340001
1.6248404 0 2.1360002
1.6365373 0 2.138
1.649794 0 2.1420002
1.6692882 0 2.154
1.6927953 0 2.171
1.7258782 0 2.2
1.7694974 0 2.2420001
1.8293966 0 2.3040001
1.8962761 0 2.3740001
1.9646254 0 2.4450002
2.0207179 0 2.5
2.0366817 0 2.5050001
2.0502396 0 2.5070002
2.0613489 0 2.506
2.0724487 0 2.5050001
2.0827067 0 2.503
2.0904355 0 2.4980001
2.0989583 0 2.4940002
2.0998254 0 2.4810002
2.0946109 0 2.4610002
2.1020446 0 2.4560001
2.1120124 0 2.4540002
2.0916719 0 2.4170001
2.1023054 0 2.4160001
2.0866818 0 2.3850002
2.0989125 0 2.3860002
2.1288416 0 2.4070001
2.141187 0 2.4080002
2.1365561 0 2.3900001
2.1811838 0 2.427
2.1855071 0 2.4190001
2.2015612 0 2.424
2.2121851 0 2.4230001
2.2218814 0 2.421
2.2269464 0 2.414
2.2430723 0 2.4190001
2.2527208 0 2.4170001
2.262351 0 2.4150002
2.2729034 0 2.414
2.2815535 0 2.411
2.2892244 0 2.4070001
2.2978127 0 2.404
2.3063724 0 2.401
2.3129733 0 2.3960001
2.3069148 0 2.378
2.3143332 0 2.3740001
0 -0 0
0 -0 0
0 -0 0
-0 0 0
-0 0 0
-0 0 0
-0 0 0
-0 0 0
-0 0 0
-0 0 0
-0 0 0
-0 0 0
-0 0 0
-0 0 0
-0 0 0
-0 0 0
-0 0 0
-2.9958754 0 3.1290002
-2.9819357 0 3.1300001
-2.9632471 0 3.1260002
-2.9945848 0 3.1750002
-3.0367169 0 3.2360001
-3.0418561 0 3.2580001
-3.0560746 0 3.2900002
-3.0820024 0 3.3350003
-3.0661297 0 3.3350003
-3.0740373 0 3.3610001
-3.0862465 0 3.3920002
-3.1099269 0 3.4360001
-3.133189 0 3.4800003
-3.1775255 0 3.5480001
-3.202508 0 3.5950003
-3.2243845 0 3.6390002
-3.2079463 0 3.6400001
-3.2248073 0 3.6790001
-3.2029388 0 3.6740003
-3.1819842 0 3.6700001
-3.1558945 0 3.6600001
-3.1376178 0 3.6590002
-3.1219087 0 3.6610003
-3.1070282 0 3.6640003
-3.0921195 0 3.6670001
-3.0788591 0 3.6720002
-3.06305 0 3.6740003
-3.0497084 0 3.6790001
-3.0313747 0 3.6780002
-3.0130501 0 3.6770003
-2.9947348 0 3.6760001
-2.9659007 0 3.6620002
-2.9597437 0 3.6760001
-2.9310424 0 3.6620002
-2.9366872 0 3.6910002
-2.918329 0 3.6900001
-2.9298532 0 3.7270002
-2.9378998 0 3.7600002
-2.9363127 0 3.7810001
-2.9515064 0 3.8240001
-2.9501822 0 3.8460002
-2.9486487 0 3.8680003
-2.9302392 0 3.8680003
-2.9118299 0 3.8680003
-2.8934205 0 3.8680003
-2.8586586 0 3.8460002
-2.8403542 0 3.8460002
-2.8220494 0 3.8460002
-2.8197827 0 3.8680003
-2.8180311 0 3.8910003
-2.8153405 0 3.9130001
-2.8131557 0 3.9360001
-2.8277912 0 3.9830003
-2.841979 0 4.0300002
-2.8403099 0 4.0550003
-2.8377068 0 4.079
-2.8355663 0 4.1040001
-2.8160336 0 4.1040001
-2.8135364 0 4.1290002
-2.7769685 0 4.1040001
-2.7574358 0 4.1040001
-2.721225 0 4.079
-2.7018113 0 4.079
-2.666615 0 4.0550003
-2.6473157 0 4.0550003
-2.6280162 0 4.0550003
-2.6087167 0 4.0550003
-2.5894175 0 4.0550003
-2.570118 0 4.0550003
-2.5508184 0 4.0550003
-2.5621097 0 4.1040001
-2.5580654 0 4.1290002
-2.5543978 0 4.1550002
-2.5498734 0 4.1800003
-2.5463207 0 4.2070003
-2.5262978 0 4.2070003
-2.5062752 0 4.2070003
-2.4862523 0 4.2070003
-2.4662292 0 4.2070003
-2.4305072 0 4.1800003
-2.3961952 0 4.1550002
-2.3764198 0 4.1550002
-2.3566444 0 4.1550002
-2.3509297 0 4.1800003
-2.3310354 0 4.1800003
-2.311141 0 4.1800003
-2.3060467 0 4.2070003
-2.3001518 0 4.2330003
-2.280005 0 4.2330003
-2.2742732 0 4.2600002
-2.2682838 0 4.2870002
-2.2620375 0 4.3140001
-2.2560539 0 4.342
-2.2503188 0 4.3710003
-2.2437971 0 4.3990002
-2.2228606 0 4.3990002
-2.2164397 0 4.428
-2.1953652 0 4.428
-2.1742904 0 4.428
-2.1532156 0 4.428
-2.1461051 0 4.4570003
-2.1248922 0 4.4570003
-2.1178393 0 4.487
-2.0964839 0 4.487
-2.0751283 0 4.487
-2.0537729 0 4.487
-2.0324175 0 4.487
-1.9976162 0 4.4570003
-1.9635437 0 4.428
-1.942469 0 4.428
-1.9213943 0 4.428
-1.9127654 0 4.4570003
-1.8915528 0 4.4570003
-1.8829291 0 4.487
-1.8740202 0 4.5170002
-1.8652358 0 4.5480003
-1.8687223 0 4.6100001
-1.8724202 0 4.6740003
-1.8763005 0 4.7400002
-1.8803344 0 4.8080001
-1.8705863 0 4.842
-1.8608961 0 4.8770003
-1.8376844 0 4.8770003
-1.8144728 0 4.8770003
-1.7912611 0 4.8770003
-1.7680495 0 4.8770003
-1.7323158 0 4.842
-1.7092707 0 4.842
-1.6862257 0 4.842
-1.6631806 0 4.842
-1.6519911 0 4.8770003
-1.6408025 0 4.9130001
-1.6292713 0 4.9490004
-1.6177214 0 4.9860001
-1.6179682 0 5.0610003
-1.6058484 0 5.0990005
-1.58158 0 5.0990005
-1.5573119 0 5.0990005
-1.5216187 0 5.0610003
-1.4862871 0 5.0230002
-0 0 0
-0 0 0
-0 0 0
-0 0 0
-0 0 0
-0 0 0
-0.69058657 0 2.6300001
-0.67806929 0 2.6300001
-0.66453975 0 2.6260002
-0.65104842 0 2.6220002
-0.6378386 0 2.6190002
-0.62489605 0 2.6170001
-0.61244071 0 2.6170001
-0.6004439 0 2.6190002
-0.58865249 0 2.6220002
-0.57727206 0 2.6270001
-0.56670392 0 2.6360002
-0.55647057 0 2.6470001
-0.54531068 0 2.654
-0.53388351 0 2.6600001
-0.52220321 0 2.6650002
-0.51124007 0 2.674
-0.4990727 0 2.677
-0.48687676 0 2.6800001
-0.47465226 0 2.6830001
-0.46205494 0 2.684
-0.44928065 0 2.684
-0.43634376 0 2.6830001
-0.42341644 0 2.6820002
-0.41019231 0 2.6790001
-0.39699677 0 2.6760001
-0.3838298 0 2.6730001
-0.37041375 0 2.6680002
-0.35704523 0 2.6630001
-0.34372434 0 2.6580002
-0.32995281 0 2.6490002
-0.31674612 0 2.6440001
-0.30255172 0 2.6300001
-0.28948307 0 2.6250002
-0.2758289 0 2.6140001
-0.26278323 0 2.608
-0.24969867 0 2.6010001
-0.23677199 0 2.595
-0.22390243 0 2.5890002
-0.2111717 0 2.5840001
-0.19848858 0 2.5790002
-0.1857086 0 2.572
-0.17313018 0 2.5670002
-0 0 0
-0 0 0
-0 0 0
-0 0 0
-0 0 0
-0 0 0
-0 0 0
-0 0 0
-0.033198692 0 1.3490001
-0.026778245 0 1.3490001
-0.020342708 0 1.348
-0.01391669 0 1.3470001
-0.0075001903 0 1.3460001
-0.0010940222 0 1.3460001
0.0053042527 0 1.3440001
0.011692195 0 1.3430001
0.018084085 0 1.3430001
0.024457749 0 1.342
0.030821897 0 1.3410001
0.037204269 0 1.3410001
0.043586638 0 1.3410001
0.049931746 0 1.34
0.056309357 0 1.34
0.062686972 0 1.34
0.06906458 0 1.34
0.075385898 0 1.3390001
0.081758745 0 1.3390001
0.088131599 0 1.3390001
0.094504453 0 1.3390001
0.10087731 0 1.3390001
0.10725015 0 1.3390001
0.11362301 0 1.3390001
0.11999586 0 1.3390001
0.12636872 0 1.3390001
0.13274157 0 1.3390001
0.13911442 0 1.3390001
0.14548726 0 1.3390001
0.15186013 0 1.3390001
0.15823297 0 1.3390001
0.16460583 0 1.3390001
0.17097868 0 1.3390001
0.17735153 0 1.3390001
0.18372437 0 1.3390001
0.19009724 0 1.3390001
0.1964701 0 1.3390001
0.20299441 0 1.34
0.20952828 0 1.3410001
0.21591066 0 1.3410001
0.22245878 0 1.342
0.22918698 0 1.3440001
0.2357589 0 1.345
0.24234037 0 1.3460001
0.24893135 0 1.3470001
0.25553182 0 1.348
0.26214185 0 1.3490001
0.26876134 0 1.35
0.27539042 0 1.3510001
0.282029 0 1.3520001
0.28889042 0 1.3540001
0.29555279 0 1.355
0.30222467 0 1.3560001
0.30913371 0 1.358
0.31606176 0 1.36
0.32300892 0 1.3620001
0.32997504 0 1.3640001
0.33696026 0 1.3660001
0.34396446 0 1.368
0.35098776 0 1.3700001
0.35776907 0 1.3710001
0.36429423 0 1.3710001
0.37081939 0 1.3710001
0.37734455 0 1.3710001
0 0 0
0 0 0
0 0 0
0 0 0
0 0 0
0 0 0
0 0 0
1.0260849 0 3.2750001
1.0410359 0 3.2730002
1.0588733 0 3.2800002
1.0715358 0 3.2710001
1.0834481 0 3.2600002
1.0922216 0 3.2400002
1.1025141 0 3.2250001
1.1143969 0 3.2150002
1.1289957 0 3.2130001
1.1350279 0 3.187
1.1440609 0 3.1700001
1.1562229 0 3.1620002
1.1564554 0 3.1220002
1.1566821 0 3.0830002
1.1523585 0 3.0330002
1.1383259 0 2.9590001
1.1290414 0 2.8990002
1.1187917 0 2.8380001
1.113148 0 2.7900002
1.0997801 0 2.7240002
1.0976304 0 2.687
1.0947152 0 2.6490002
1.0893483 0 2.6060002
1.1000602 0 2.6020002
1.1004732 0 2.5740001
1.1118593 0 2.572
1.1227893 0 2.569
1.1336908 0 2.5660002
1.1441172 0 2.562
1.1554081 0 2.5600002
1.151173 0 2.5240002
1.1548904 0 2.506
1.1616958 0 2.4950001
1.1731002 0 2.4940002
1.1612138 0 2.444
1.1747653 0 2.4480002
1.183993 0 2.4430001
1.1926838 0 2.437
1.2018118 0 2.4320002
1.210892 0 2.427
1.2189173 0 2.4200001
1.227893 0 2.4150002
1.2373339 0 2.411
1.2415575 0 2.3970001
1.2503523 0 2.3920002
1.2548795 0 2.3790002
1.264073 0 2.375
1.2667848 0 2.3590002
1.2763869 0 2.3560002
1.2848674 0 2.3510001
1.2960569 0 2.3510001
1.305022 0 2.3470001
1.3150707 0 2.345
1.3245349 0 2.342
1.3345408 0 2.3400002
1.3445277 0 2.3380001
1.3544956 0 2.3360002
1.3714595 0 2.3460002
1.3826251 0 2.3460002
1.3926024 0 2.3440001
1.4025606 0 2.342
1.4118965 0 2.3390002
1.4218119 0 2.3370001
1.4249636 0 2.3240001
1.4020394 0 2.2690001
1.4153292 0 2.273
1.4110889 0 2.2490001
1.4179997 0 2.243
1.4274013 0 2.2410002
1.4355001 0 2.237
1.4435612 0 2.233
1.434001 0 2.2020001
1.4477611 0 2.207
1.4536399 0 2.2
1.4607831 0 2.1950002
1.468549 0 2.1910002
1.4769518 0 2.1880002
1.4846462 0 2.184
1.491618 0 2.1790001
1.4971638 0 2.1720002
1.505419 0 2.1690001
1.5115491 0 2.1630001
1.5239545 0 2.1660001
1.5278884 0 2.1570001
1.5353019 0 2.1530001
1.5441133 0 2.151
1.5521829 0 2.148
1.5594965 0 2.1440001
1.5675044 0 2.141
1.5762206 0 2.1390002
1.5849177 0 2.1370001
1.5853851 0 2.1240001
1.5984987 0 2.128
1.6108947 0 2.131
1.6217977 0 2.1320002
1.634241 0 2.135
1.649794 0 2.1420002
1.6685132 0 2.1530001
1.6920156 0 2.1700001
1.7148955 0 2.1860001
1.7679188 0 2.24
1.8286027 0 2.3030002
1.8994712 0 2.378
1.9662323 0 2.447
2.0231428 0 2.503
2.0383079 0 2.5070002
2.0526931 0 2.5100002
2.0638165 0 2.5090001
2.0741034 0 2.5070002
2.083539 0 2.5040002
2.0904355 0 2.4980001
2.0981164 0 2.493
2.0972862 0 2.4780002
2.1039734 0 2.4720001
2.111459 0 2.467
2.083611 0 2.421
2.0916719 0 2.4170001
2.0735903 0 2.3830001
2.0849319 0 2.3830001
2.0962734 0 2.3830001
2.1023085 0 2.3770001
2.1162891 0 2.3800001
2.1338744 0 2.3870001
2.1443365 0 2.3860002
2.1846037 0 2.4180002
2.1997447 0 2.4220002
2.2112722 0 2.4220002
2.220046 0 2.4190001
2.2251015 0 2.4120002
2.2421451 0 2.4180002
2.2527208 0 2.4170001
2.262351 0 2.4150002
2.2729034 0 2.414
2.2815535 0 2.411
2.2892244 0 2.4070001
2.2987688 0 2.4050002
2.3073332 0 2.4020002
2.3139386 0 2.3970001
2.3117654 0 2.3830001
2.3201823 0 2.3800001
2.3138766 0 2.3620002
0 0 0
0 0 0
-0 0 0
-0 0 0
-0 0 0
-0 0 0
-0 0 0
-0 0 0
-0 0 0
-0 0 0
-0 0 0
-0 0 0
-0 0 0
-0 0 0
-0 0 0
-0 0 0
-3.0447054 0 3.1800001
-3.0305233 0 3.1810002
-3.0381339 0 3.2050002
-3.0521185 0 3.2360001
-3.0855148 0 3.2880001
-3.0707994 0 3.2890003
-3.108093 0 3.3460002
-3.0921679 0 3.3460002
-3.0937111 0 3.3650002
-3.0758665 0 3.3630002
-3.0871563 0 3.3930001
-3.1108322 0 3.4370003
-3.1322885 0 3.4790001
-3.1515536 0 3.5190001
-3.200726 0 3.5930002
-3.2234986 0 3.6380002
-3.2070651 0 3.6390002
-3.1923752 0 3.6420002
-3.2003233 0 3.6710002
-3.1802504 0 3.6680002
-3.15417 0 3.6580002
-3.1367602 0 3.6580002
-3.1210556 0 3.6600001
-3.1061802 0 3.6630001
-3.0904331 0 3.6650002
-3.0755053 0 3.6680002
-3.0580475 0 3.6680002
-3.0331295 0 3.6590002
-3.0115941 0 3.6540003
-2.9925642 0 3.6520002
-2.9743681 0 3.6510003
-2.9618509 0 3.6570001
-2.9412251 0 3.6530001
-2.9286413 0 3.6590002
-2.932709 0 3.6860001
-2.9167473 0 3.6880002
-2.9007668 0 3.6900001
-2.9168031 0 3.7330003
-2.9363127 0 3.7810001
-2.9352977 0 3.8030002
-2.9333065 0 3.8240001
-2.9318776 0 3.8460002
-2.9135728 0 3.8460002
-2.8952682 0 3.8460002
-2.8769634 0 3.8460002
-2.8586586 0 3.8460002
-2.8403542 0 3.8460002
-2.8220494 0 3.8460002
-2.8365498 0 3.8910003
-2.8180311 0 3.8910003
-2.8153405 0 3.9130001
-2.8295944 0 3.9590001
-2.8277912 0 3.9830003
-2.8250539 0 4.006
-2.8403099 0 4.0550003
-2.8210106 0 4.0550003
-2.8182931 0 4.079
-2.8160336 0 4.1040001
-2.7965012 0 4.1040001
-2.7938848 0 4.1290002
-2.7574358 0 4.1040001
-2.7379034 0 4.1040001
-2.7183707 0 4.1040001
-2.6988378 0 4.1040001
-2.6793053 0 4.1040001
-2.6435704 0 4.079
-2.6241565 0 4.079
-2.604743 0 4.079
-2.5853293 0 4.079
-2.5816422 0 4.1040001
-2.5777171 0 4.1290002
-2.5741735 0 4.1550002
-2.5697675 0 4.1800003
-2.5498734 0 4.1800003
-2.5463207 0 4.2070003
-2.5262978 0 4.2070003
-2.5062752 0 4.2070003
-2.4862523 0 4.2070003
-2.4662292 0 4.2070003
-2.4305072 0 4.1800003
-2.4106128 0 4.1800003
-2.3907185 0 4.1800003
-2.3708239 0 4.1800003
-2.3509297 0 4.1800003
-2.3310354 0 4.1800003
-2.311141 0 4.1800003
-2.2912467 0 4.1800003
-2.2713523 0 4.1800003
-2.2514579 0 4.1800003
-2.2459781 0 4.2070003
-2.239712 0 4.2330003
-2.2337227 0 4.2600002
-2.2274766 0 4.2870002
-2.2353885 0 4.342
-2.2295151 0 4.3710003
-2.2228606 0 4.3990002
-2.2019238 0 4.3990002
-2.1953652 0 4.428
-2.1742904 0 4.428
-2.1532156 0 4.428
-2.1321411 0 4.428
-2.1248922 0 4.4570003
-2.1036797 0 4.4570003
-2.0824671 0 4.4570003
-2.0751283 0 4.487
-2.0400417 0 4.4570003
-2.0188289 0 4.4570003
-1.9976162 0 4.4570003
-1.9764035 0 4.4570003
-1.942469 0 4.428
-1.9339781 0 4.4570003
-1.9127654 0 4.4570003
-1.8915528 0 4.4570003
-1.8829291 0 4.487
-1.8740202 0 4.5170002
-1.8652358 0 4.5480003
-1.8561561 0 4.579
-1.8596009 0 4.6420002
-1.8501748 0 4.6740003
-1.8537407 0 4.7400002
-1.8439299 0 4.7730002
-1.834568 0 4.8080001
-1.824496 0 4.842
-1.8014511 0 4.842
-1.7784059 0 4.842
-1.7553608 0 4.842
-1.7201518 0 4.8080001
-1.6972684 0 4.8080001
-1.6743852 0 4.8080001
-1.651502 0 4.8080001
-1.6401354 0 4.842
-1.6287795 0 4.8770003
-1.6174195 0 4.9130001
-1.6177214 0 4.9860001
-1.6058198 0 5.0230002
-1.6058484 0 5.0990005
-1.58158 0 5.0990005
-1.5573119 0 5.0990005
-1.5216187 0 5.0610003
-1.4862871 0 5.0230002
-0 0 0
-0 0 0
-0 0 0
-0 0 0
-0 0 0
-0 0 0
-0.69294977 0 2.6390002
-0.67858499 0 2.6320002
-0.66479284 0 2.6270001
-0.65129668 0 2.6230001
-0.63808209 0 2.6200001
-0.62513483 0 2.618
-0.61267471 0 2.618
-0.6004439 0 2.6190002
-0.58887696 0 2.6230001
-0.57727206 0 2.6270001
-0.5673489 0 2.6390002
-0.55626041 0 2.6460001
-0.54572165 0 2.6560001
-0.53428495 0 2.6620002
-0.52318293 0 2.6700001
-0.51181364 0 2.677
-0.49981844 0 2.6810002
-0.48742178 0 2.6830001
-0.4750061 0 2.6850002
-0.46239924 0 2.6860001
-0.44961545 0 2.6860001
-0.43683165 0 2.6860001
-0.4235743 0 2.6830001
-0.41049856 0 2.6810002
-0.39729351 0 2.6780002
-0.38397339 0 2.674
-0.37069142 0 2.6700001
-0.35731339 0 2.6650002
-0.34385365 0 2.6590002
-0.33007735 0 2.6500001
-0.31698573 0 2.6460001
-0.30255172 0 2.6300001
-0.28937277 0 2.6240001
-0.2758289 0 2.6140001
-0.26278323 0 2.608
-0.24960268 0 2.6000001
-0.23677199 0 2.595
-0.22390243 0 2.5890002
-0.21108998 0 2.5830002
-0.1984116 0 2.5780001
-0.18556421 0 2.5700002
-0.17292784 0 2.5640001
-0 0 0
-0 0 0
-0 0 0
-0 0 0
-0 0 0
-0 0 0
-0 0 0
-0 0 0
-0.033198692 0 1.3490001
-0.026778245 0 1.3490001
-0.020357799 0 1.3490001
-0.013927021 0 1.348
-0.0075057624 0 1.3470001
-0.0010940222 0 1.3460001
0.0053081992 0 1.345
0.011700902 0 1.3440001
0.018084085 0 1.3430001
0.024457749 0 1.342
0.03084488 0 1.342
0.037204269 0 1.3410001
0.043586638 0 1.3410001
0.04996901 0 1.3410001
0.056309357 0 1.34
0.062686972 0 1.34
0.06906458 0 1.34
0.075442187 0 1.34
0.081819803 0 1.34
