# .PCD v0.7 - Point Cloud Data file format
VERSION 0.7
FIELDS x y z
SIZE 4 4 4
TYPE F F F
COUNT 1 1 1
WIDTH 2388
HEIGHT 1
VIEWPOINT 0 0 0 1 0 0 0
POINTS 2388
DATA ascii
0.65888751 0 2.1030002
0.66985077 0 2.1060002
0.69117302 0 2.141
0.70201808 0 2.1430001
0.72650838 0 2.1860001
0.74871123 0 2.2210002
0.77637506 0 2.2710001
0.80555475 0 2.3240001
0.83699596 0 2.3820002
0.8615101 0 2.4190001
0.8896246 0 2.4650002
0.9024536 0 2.4680002
0.91642237 0 2.4740002
0.92932266 0 2.4770002
0.94111174 0 2.4770002
0.95290083 0 2.4770002
0.96352148 0 2.4740002
0.97332513 0 2.4690001
0.97749555 0 2.45
0.98350376 0 2.4360001
0.98937881 0 2.4220002
0.99883974 0 2.4170001
1.0078351 0 2.411
1.017619 0 2.4070001
1.0273647 0 2.4030001
1.0370725 0 2.3990002
1.0463051 0 2.3940001
1.0559318 0 2.3900001
1.0650741 0 2.3850002
1.0728145 0 2.3770001
1.0818472 0 2.3720002
1.09498 0 2.3760002
1.0993041 0 2.3610001
1.1091299 0 2.358
1.1189272 0 2.355
1.129176 0 2.3530002
1.1418288 0 2.3560002
1.1510843 0 2.352
1.1583251 0 2.3440001
1.16998 0 2.345
1.1801336 0 2.3430002
1.190268 0 2.3410001
1.2003834 0 2.3390002
1.2104797 0 2.3370001
1.220557 0 2.335
1.2295603 0 2.3310001
1.2332032 0 2.3170002
1.2436938 0 2.3160002
1.2541746 0 2.3150001
1.2646463 0 2.3140001
1.2756596 0 2.3140001
1.2816683 0 2.3050001
1.2920781 0 2.3040001
1.3081338 0 2.3130002
1.3180016 0 2.3110001
1.3278505 0 2.309
1.3376803 0 2.3070002
1.3492448 0 2.3080001
1.3584615 0 2.3050001
1.3670555 0 2.3010001
1.3546509 0 2.2620001
1.3587767 0 2.2510002
1.35063 0 2.22
1.3489327 0 2.2
1.3513707 0 2.187
1.3605343 0 2.1850002
1.3684237 0 2.181
1.3800684 0 2.1830001
1.3891844 0 2.181
1.3995645 0 2.181
1.4105914 0 2.1820002
1.4268376 0 2.1910002
1.4372654 0 2.1910002
1.4476932 0 2.1910002
1.4574556 0 2.1900001
1.4651976 0 2.1860001
1.4722265 0 2.181
1.4812473 0 2.1790001
1.4827189 0 2.1660001
1.4826883 0 2.151
1.47141 0 2.1200001
1.473114 0 2.108
1.479629 0 2.1030002
1.483263 0 2.0940001
1.4875244 0 2.0860002
1.4931455 0 2.0800002
1.4994318 0 2.075
1.5078529 0 2.0730002
1.5155228 0 2.0700002
1.5253748 0 2.0700002
1.5359684 0 2.0710001
1.5480644 0 2.0740001
1.56094 0 2.0780001
1.5738539 0 2.082
1.5875664 0 2.0870001
1.6028575 0 2.0940001
1.617445 0 2.1000001
1.6313145 0 2.105
1.6444522 0 2.1090002
1.6576277 0 2.1130002
1.6684735 0 2.1140001
1.6777409 0 2.1130002
1.6846026 0 2.1090002
1.6922295 0 2.1060002
1.6990196 0 2.102
1.7065849 0 2.0990002
1.7141215 0 2.0960002
1.7183391 0 2.089
1.7282815 0 2.089
1.7373918 0 2.0880001
1.7481663 0 2.089
1.7589505 0 2.0900002
1.7697439 0 2.0910001
1.7805469 0 2.092
1.7913597 0 2.0930002
1.8021816 0 2.0940001
1.8121479 0 2.0940001
1.8238544 0 2.0960002
1.8452041 0 2.1090002
1.8657978 0 2.1210001
0 -0 0
0 -0 0
0 -0 0
0 -0 0
0 -0 0
0 -0 0
0 -0 0
0 -0 0
0 -0 0
0 -0 0
0 -0 0
0 -0 0
0 -0 0
0 -0 0
0 -0 0
0 -0 0
0 -0 0
0 -0 0
0 -0 0
0 -0 0
0 -0 0
0 -0 0
0 -0 0
-0 -0 0
-0 -0 0
-0 -0 0
-0 -0 0
-0 -0 0
-0 -0 0
-0 -0 0
-0 -0 0
-3.9272819 0 3.9830003
-3.9083252 0 3.9830003
-3.8659325 0 3.9590001
-3.8704119 0 3.9830003
-3.851455 0 3.9830003
-3.8546288 0 4.006
-3.858542 0 4.0300002
-3.8393614 0 4.0300002
-3.8201809 0 4.0300002
-3.8010006 0 4.0300002
-3.7592978 0 4.006
-3.7402315 0 4.006
-3.6998012 0 3.9830003
-3.6808443 0 3.9830003
-3.6618874 0 3.9830003
-3.642931 0 3.9830003
-3.6449008 0 4.006
-3.647557 0 4.0300002
-3.6724932 0 4.079
-3.6978588 0 4.1290002
-3.7236392 0 4.1800003
-3.7507064 0 4.2330003
-3.7305596 0 4.2330003
-3.7340796 0 4.2600002
-3.6902666 0 4.2330003
-3.6475773 0 4.2070003
-3.5827165 0 4.1550002
-3.5192082 0 4.1040001
-3.4783568 0 4.079
-3.4589431 0 4.079
-3.4606104 0 4.1040001
-3.4620395 0 4.1290002
-3.4849072 0 4.1800003
-3.4873943 0 4.2070003
-3.4888005 0 4.2330003
-3.4907784 0 4.2600002
-3.4924996 0 4.2870002
-3.472096 0 4.2870002
-3.4516923 0 4.2870002
-3.4312887 0 4.2870002
-3.4108853 0 4.2870002
-3.3904817 0 4.2870002
-3.3700778 0 4.2870002
-3.3496745 0 4.2870002
-3.3083026 0 4.2600002
-0 -0 0
-0 -0 0
-0 -0 0
-0 -0 0
-0 -0 0
-0 -0 0
-0 -0 0
-1.742911 0 2.3600001
-1.7280098 0 2.355
-1.7116984 0 2.348
-1.6983507 0 2.345
-1.6850313 0 2.342
-1.6738847 0 2.342
-1.6634483 0 2.3430002
-1.6544126 0 2.3460002
-1.6453484 0 2.3490002
-1.6376469 0 2.3540001
-1.6305889 0 2.3600001
-1.6227874 0 2.365
-1.6156199 0 2.3710001
-1.6070418 0 2.375
-1.5984259 0 2.3790002
-1.5897719 0 2.3830001
-1.5804173 0 2.3860002
-1.5716916 0 2.3900001
-1.5629282 0 2.3940001
-1.5560707 0 2.401
-1.54786 0 2.4060001
-1.5396018 0 2.411
-1.5306622 0 2.4150002
-1.5336365 0 2.4380002
-1.5264031 0 2.4450002
-1.5166249 0 2.4480002
-1.5074329 0 2.4520001
-1.495153 0 2.4510002
-1.4871191 0 2.457
-1.4742242 0 2.4550002
-1.4607527 0 2.4520001
-1.4272164 0 2.4150002
-1.4180672 0 2.4190001
-1.3856217 0 2.3830001
-1.3690896 0 2.3740001
-1.3560748 0 2.3710001
-1.3413872 0 2.365
-1.3261943 0 2.358
-1.3121833 0 2.3530002
-1.2982198 0 2.348
-1.2815633 0 2.3380001
-1.2660887 0 2.3300002
-1.2517675 0 2.3240001
-1.2364358 0 2.3160002
-1.2217091 0 2.309
-1.1944648 0 2.2780001
-1.1815447 0 2.2740002
-1.1676327 0 2.2680001
-1.1568383 0 2.2680001
-1.1344219 0 2.2450001
-1.1192321 0 2.2360001
-1.1031363 0 2.2250001
-1.0846901 0 2.2090001
-1.0698 0 2.2
-1.0593294 0 2.2
-1.0464749 0 2.1950002
-1.0369719 0 2.197
-1.0269829 0 2.1980002
-1.016059 0 2.197
-1.0069759 0 2.2
-0.99786407 0 2.2030001
-0.98693085 0 2.2020001
-0.98886687 0 2.23
-0.98307896 0 2.2410002
-0.97762001 0 2.253
-0.97376364 0 2.2690001
-0.97315025 0 2.2930002
-0.96517438 0 2.3000002
-0.95796162 0 2.309
-0.95107335 0 2.319
-0.94206309 0 2.3240001
-0.93260461 0 2.3280001
-0.92350399 0 2.3330002
-0.9135735 0 2.3360002
-0.90400082 0 2.3400002
-0.89439011 0 2.3440001
-0.88474119 0 2.348
-0.8750543 0 2.352
-0.86532933 0 2.3560002
-0.85592878 0 2.3610001
-0.84504962 0 2.3620002
-0.83839691 0 2.375
-0.82535213 0 2.3700001
-0.81991166 0 2.3870001
-0.81295443 0 2.4000001
-0.80119789 0 2.3990002
-0 -0 0
-0 -0 0
-0 -0 0
-0 -0 0
-0 -0 0
-0 -0 0
-0 -0 0
-0.38111445 0 1.2880001
-0.37381977 0 1.284
-0.36684957 0 1.281
-0.35962629 0 1.2770001
-0.35216424 0 1.2720001
-0.34474978 0 1.2670001
-0.33738288 0 1.2620001
-0.33006361 0 1.2570001
-0.32279193 0 1.2520001
-0.31582087 0 1.248
-0.30888796 0 1.2440001
-0.30199304 0 1.24
-0.29513624 0 1.2360001
-0.28831753 0 1.2320001
-0.28153688 0 1.228
-0.27479431 0 1.2240001
-0.26787007 0 1.2190001
-0.26099339 0 1.2140001
-0.25416434 0 1.2090001
-0.24758832 0 1.205
-0.2408497 0 1.2
-0.23415866 0 1.1950001
-0.2277064 0 1.1910001
-0.22110581 0 1.1860001
-0.21473445 0 1.182
-0.20840119 0 1.1780001
-0.202106 0 1.174
-0.19584888 0 1.1700001
-0.18946721 0 1.1650001
-0.18329099 0 1.161
-0.17715286 0 1.1570001
-0.17105278 0 1.153
-0.16499081 0 1.149
-0.15882808 0 1.1440001
-0.15284701 0 1.1400001
-0.14690399 0 1.136
-0.14099909 0 1.1320001
-0.13513224 0 1.128
-0.12930347 0 1.1240001
-0.12351277 0 1.12
-0.11776015 0 1.1160001
-0.11214637 0 1.113
-0.10656113 0 1.11
-0.10100447 0 1.107
-0.095562831 0 1.105
-0.090058513 0 1.102
-0.084659718 0 1.1
-0.079207748 0 1.097
-0.073851787 0 1.095
-0.068452172 0 1.092
-0.063196979 0 1.0910001
-0.057898127 0 1.0890001
-0.05266672 0 1.0880001
-0.047444832 0 1.087
-0.042232465 0 1.0860001
-0.037063744 0 1.0860001
-0.031895023 0 1.0860001
-0.026750909 0 1.087
-0.021617131 0 1.0890001
-0.016479405 0 1.092
-0.011313122 0 1.095
-0.0061238552 0 1.0990001
-0.00089732575 0 1.1040001
0.004380744 0 1.11
0.0097246338 0 1.1170001
0.015135154 0 1.1240001
0.020612307 0 1.131
0.026179077 0 1.1390001
0.03179425 0 1.146
0.037476055 0 1.153
0.043187235 0 1.159
0.048955526 0 1.1650001
0.054687366 0 1.169
0.060405735 0 1.1720001
0.066096365 0 1.174
0 -0 0
0 -0 0
0 -0 0
0 -0 0
0 -0 0
0 -0 0
0 -0 0
0 -0 0
0.22959633 0 2.3160002
0.24041133 0 2.3140001
0.25120726 0 2.312
0.26198423 0 2.3100002
0.27262396 0 2.3070002
0.2831122 0 2.3030002
0.29369006 0 2.3000002
0.30397442 0 2.2950001
0.31407398 0 2.289
0.32440042 0 2.2850001
0.3342486 0 2.2780001
0.34327263 0 2.266
0.35265127 0 2.2570002
0.36049512 0 2.2390001
0.37032261 0 2.2340002
0.37993199 0 2.2280002
0.38930896 0 2.2210002
0.39465833 0 2.1920002
0.40472132 0 2.1900001
0.4138175 0 2.1830001
0.42284703 0 2.1760001
0.43240717 0 2.1720002
0.43846393 0 2.151
0.44807562 0 2.148
0.45701867 0 2.1420002
0.46612275 0 2.1370001
0.47517923 0 2.1320002
0.48418805 0 2.1270001
0.49314937 0 2.1220002
0.50206304 0 2.1170001
0.51092905 0 2.112
0.51999426 0 2.108
0.52902138 0 2.1040001
0.53801042 0 2.1000001
0.54696137 0 2.0960002
0.55613995 0 2.0930002
0.56583089 0 2.092
0.57523715 0 2.0900002
0.58518434 0 2.0900002
0.59513152 0 2.0900002
0.60536814 0 2.0910001
0.61590868 0 2.0930002
0.62646812 0 2.095
0.63704669 0 2.0970001
0.64795285 0 2.1000001
0.65888751 0 2.1030002
0.66985077 0 2.1060002
0.68148822 0 2.1110001
0.70300084 0 2.1460001
0.72650838 0 2.1860001
0.74871123 0 2.2210002
0.77603322 0 2.2700002
0.80555475 0 2.3240001
0.83629316 0 2.3800001
0.86079776 0 2.4170001
0.8896246 0 2.4650002
0.90208787 0 2.467
0.91716313 0 2.4760001
0.93007296 0 2.4790001
0.9422515 0 2.48
0.95443958 0 2.4810002
0.96352148 0 2.4740002
0.97450781 0 2.4720001
0.98028833 0 2.457
0.98915607 0 2.45
0.98978728 0 2.4230001
0.99925309 0 2.4180002
1.0086713 0 2.4130001
1.0180418 0 2.4080002
1.0282199 0 2.4050002
1.037937 0 2.401
1.0480533 0 2.398
1.0581409 0 2.3950002
1.0677534 0 2.391
1.0786818 0 2.3900001
1.0886885 0 2.3870001
1.094519 0 2.375
1.1044259 0 2.3720002
1.1091299 0 2.358
1.1189272 0 2.355
1.1282161 0 2.3510001
1.1437674 0 2.3600001
1.1496161 0 2.3490002
1.1588192 0 2.345
1.1694812 0 2.3440001
1.1781189 0 2.3390002
1.1872174 0 2.335
1.1967908 0 2.332
1.2042642 0 2.325
1.2142844 0 2.3230002
1.2248129 0 2.322
1.2342676 0 2.319
1.2447677 0 2.3180001
1.2547165 0 2.3160002
1.2646463 0 2.3140001
1.2751083 0 2.3130002
1.2850046 0 2.3110001
1.2976861 0 2.3140001
1.3075682 0 2.312
1.3168609 0 2.309
1.3278505 0 2.309
1.3371005 0 2.306
1.347491 0 2.3050001
1.3572829 0 2.3030002
1.3575498 0 2.2850001
1.3552496 0 2.263
1.3557585 0 2.2460001
1.3488048 0 2.217
1.3519986 0 2.2050002
1.3488991 0 2.1830001
1.3580436 0 2.181
1.3665415 0 2.1780002
1.3781719 0 2.1800001
1.3879105 0 2.1790001
1.3989229 0 2.1800001
1.4099449 0 2.181
1.4255351 0 2.1890001
1.4372654 0 2.1910002
1.4470325 0 2.1900001
1.4567901 0 2.1890001
1.4658678 0 2.187
1.4729016 0 2.1820002
1.481927 0 2.1800001
1.4813498 0 2.164
1.4826883 0 2.151
1.4693278 0 2.1170001
1.4745116 0 2.1100001
1.4810361 0 2.105
1.4846797 0 2.0960002
1.4918028 0 2.092
1.494581 0 2.082
1.5015997 0 2.0780001
1.5085802 0 2.0740001
1.516987 0 2.072
1.5261116 0 2.0710001
1.53671 0 2.072
1.5480644 0 2.0740001
1.5601889 0 2.0770001
1.5738539 0 2.082
1.5868058 0 2.0860002
1.6013265 0 2.092
1.6159046 0 2.098
1.6305395 0 2.1040001
1.6436723 0 2.108
1.6568431 0 2.112
1.6668949 0 2.112
1.6753589 0 2.1100001
1.683005 0 2.1070001
1.6898189 0 2.1030002
1.6965948 0 2.0990002
1.7000804 0 2.0910001
1.7083966 0 2.089
1.716694 0 2.0870001
1.726627 0 2.0870001
1.7365597 0 2.0870001
1.7473295 0 2.0880001
1.7581087 0 2.089
1.7697439 0 2.0910001
1.7805469 0 2.092
1.7922155 0 2.0940001
1.803903 0 2.0960002
1.8156095 0 2.098
1.8255947 0 2.098
1.8530782 0 2.118
1.8649181 0 2.1200001
1.8776615 0 2.1230001
1.8842088 0 2.1190002
1.9041275 0 2.1300001
0 -0 0
0 -0 0
0 -0 0
0 -0 0
0 -0 0
0 -0 0
0 -0 0
0 -0 0
0 -0 0
0 -0 0
0 -0 0
0 -0 0
0 -0 0
0 -0 0
0 -0 0
0 -0 0
0 -0 0
0 -0 0
0 -0 0
0 -0 0
-0 -0 0
-0 -0 0
-0 -0 0
-0 -0 0
-0 -0 0
-0 -0 0
-0 -0 0
-0 -0 0
-3.94996 0 4.006
-3.9083252 0 3.9830003
-3.8893683 0 3.9830003
-3.8704119 0 3.9830003
-3.851455 0 3.9830003
-3.8324981 0 3.9830003
-3.8135417 0 3.9830003
-3.7717199 0 3.9590001
-3.7528772 0 3.9590001
-3.734035 0 3.9590001
-3.7377145 0 3.9830003
-3.7187576 0 3.9830003
-3.6998012 0 3.9830003
-3.6808443 0 3.9830003
-3.683033 0 4.006
-3.6859181 0 4.0300002
-3.6894841 0 4.0550003
-3.6919067 0 4.079
-3.6950018 0 4.1040001
-3.721144 0 4.1550002
-3.7708528 0 4.2330003
-3.7746301 0 4.2600002
-3.7781501 0 4.2870002
-3.7577462 0 4.2870002
-3.7373428 0 4.2870002
-3.6935296 0 4.2600002
-3.6275544 0 4.2070003
-3.5629413 0 4.1550002
-3.5209944 0 4.1290002
-3.4801428 0 4.1040001
-3.4816911 0 4.1290002
-3.5048015 0 4.1800003
-3.5074172 0 4.2070003
-3.5089471 0 4.2330003
-3.5110538 0 4.2600002
-3.4907784 0 4.2600002
-3.4924996 0 4.2870002
-3.472096 0 4.2870002
-3.4516923 0 4.2870002
-3.4312887 0 4.2870002
-3.4108853 0 4.2870002
-3.3904817 0 4.2870002
-3.3488529 0 4.2600002
-3.3074813 0 4.2330003
-3.2461751 0 4.1800003
-0 -0 0
-0 -0 0
-0 -0 0
-0 -0 0
-0 -0 0
-0 -0 0
-0 -0 0
-1.742911 0 2.3600001
-1.7280098 0 2.355
-1.7131565 0 2.3500001
-1.699075 0 2.3460002
-1.6864704 0 2.3440001
-1.6745995 0 2.3430002
-1.6641583 0 2.3440001
-1.6551179 0 2.3470001
-1.6460488 0 2.3500001
-1.6390384 0 2.3560002
-1.6312797 0 2.3610001
-1.6241598 0 2.3670001
-1.6163014 0 2.3720002
-1.6083952 0 2.3770001
-1.5997696 0 2.381
-1.5911062 0 2.3850002
-1.5824044 0 2.3890002
-1.5736645 0 2.3930001
-1.5655395 0 2.398
-1.557367 0 2.4030001
-1.5491468 0 2.4080002
-1.5415175 0 2.414
-1.5338311 0 2.4200001
-1.5304911 0 2.4330001
-1.5226573 0 2.4390001
-1.5129077 0 2.4420002
-1.5074329 0 2.4520001
-1.500643 0 2.46
-1.4883296 0 2.4590001
-1.4682193 0 2.4450002
-1.4541997 0 2.4410002
-1.4266253 0 2.414
-1.4174811 0 2.4180002
-1.3850403 0 2.3820002
-1.3719732 0 2.3790002
-1.355503 0 2.3700001
-1.3413872 0 2.365
-1.3261943 0 2.358
-1.3121833 0 2.3530002
-1.2976669 0 2.3470001
-1.2793708 0 2.3340001
-1.2693491 0 2.3360002
-1.2523061 0 2.325
-1.2294955 0 2.3030002
-1.220651 0 2.3070002
-1.1965622 0 2.2820001
-1.1820642 0 2.2750001
-1.1681476 0 2.2690001
-1.1578585 0 2.2700002
-1.1359379 0 2.2480001
-1.1202332 0 2.2380002
-1.1036321 0 2.2260001
-1.0822349 0 2.204
-1.0683413 0 2.197
-1.0569218 0 2.1950002
-1.0459981 0 2.194
-1.035084 0 2.1930001
-1.0265156 0 2.197
-1.0169841 0 2.1990001
-1.0069759 0 2.2
-0.99877 0 2.2050002
-0.98693085 0 2.2020001
-0.99019718 0 2.233
-0.98878175 0 2.2540002
-0.97935575 0 2.2570002
-0.97419286 0 2.2700002
-0.97187704 0 2.2900002
-0.96643329 0 2.3030002
-0.95837653 0 2.3100002
-0.95107335 0 2.319
-0.94165778 0 2.3230002
-0.93260461 0 2.3280001
-0.92350399 0 2.3330002
-0.91318238 0 2.335
-0.90400082 0 2.3400002
-0.89400858 0 2.3430002
-0.88436443 0 2.3470001
-0.87468225 0 2.3510001
-0.86496198 0 2.355
-0.85592878 0 2.3610001
-0.84469181 0 2.3610001
-0.83380789 0 2.3620002
-0.82361084 0 2.365
-0.82128561 0 2.391
-0.81295443 0 2.4000001
-0.80219984 0 2.4020002
-0 -0 0
-0 -0 0
-0 -0 0
-0 -0 0
-0 -0 0
-0 -0 0
-0 -0 0
-0 -0 0
-0.37352866 0 1.2830001
-0.3665632 0 1.2800001
-0.35962629 0 1.2770001
-0.35216424 0 1.2720001
-0.34474978 0 1.2670001
-0.33738288 0 1.2620001
-0.33006361 0 1.2570001
-0.32279193 0 1.2520001
-0.31582087 0 1.248
-0.30888796 0 1.2440001
-0.30199304 0 1.24
-0.29513624 0 1.2360001
-0.28831753 0 1.2320001
-0.28153688 0 1.228
-0.27479431 0 1.2240001
-0.26787007 0 1.2190001
-0.26099339 0 1.2140001
-0.25437456 0 1.21
-0.24758832 0 1.205
-0.24105042 0 1.2010001
-0.23435462 0 1.1960001
-0.2277064 0 1.1910001
-0.22110581 0 1.1860001
-0.21473445 0 1.182
-0.20840119 0 1.1780001
-0.202106 0 1.174
-0.19584888 0 1.1700001
-0.18946721 0 1.1650001
-0.18329099 0 1.161
-0.17715286 0 1.1570001
-0.17105278 0 1.153
-0.16499081 0 1.149
-0.15882808 0 1.1440001
-0.15284701 0 1.1400001
-0.14690399 0 1.136
-0.14099909 0 1.1320001
-0.13513224 0 1.128
-0.12930347 0 1.1240001
-0.12351277 0 1.12
-0.11786568 0 1.1170001
-0.11214637 0 1.113
-0.10656113 0 1.11
-0.10100447 0 1.107
-0.095562831 0 1.105
-0.090058513 0 1.102
-0.084659718 0 1.1
-0.079207748 0 1.097
-0.073851787 0 1.095
-0.068514861 0 1.0930001
-0.063196979 0 1.0910001
-0.057898127 0 1.0890001
-0.05266672 0 1.0880001
-0.047444832 0 1.087
-0.042232465 0 1.0860001
-0.037063744 0 1.0860001
-0.031924389 0 1.087
-0.02677552 0 1.0880001
-0.021636982 0 1.09
-0.016479405 0 1.092
-0.011313122 0 1.095
-0.0061238552 0 1.0990001
-0.0008981385 0 1.105
0.0043846909 0 1.1110001
0.0097333388 0 1.118
0.015148619 0 1.125
0.020630533 0 1.1320001
0.026202062 0 1.1400001
0.031821996 0 1.1470001
0.037476055 0 1.153
0.043224499 0 1.1600001
0.048955526 0 1.1650001
0.054734148 0 1.1700001
0.060457278 0 1.1730001
0.066152669 0 1.1750001
0.071867093 0 1.177
0 -0 0
0 -0 0
0 -0 0
0 -0 0
0 -0 0
0 -0 0
0 -0 0
0.22969545 0 2.3170002
0.24061912 0 2.3160002
0.25142458 0 2.3140001
0.26221105 0 2.312
0.27286029 0 2.309
0.28348094 0 2.306
0.2939454 0 2.302
0.30423936 0 2.2970002
0.31434843 0 2.2910001
0.32454237 0 2.286
0.33439532 0 2.279
0.34281817 0 2.263
0.35171378 0 2.2510002
0.36033413 0 2.2380002
0.37015682 0 2.233
0.38010249 0 2.2290001
0.38895839 0 2.2190001
0.39429823 0 2.1900001
0.40435174 0 2.1880002
0.41343835 0 2.181
0.42265272 0 2.1750002
0.43220806 0 2.171
0.4398908 0 2.158
0.44786704 0 2.1470001
0.45680529 0 2.141
0.46568647 0 2.135
0.47473344 0 2.1300001
0.48373276 0 2.125
0.49268454 0 2.1200001
0.5015887 0 2.115
0.51068717 0 2.1110001
0.51974761 0 2.1070001
0.52876991 0 2.1030002
0.53775424 0 2.0990002
0.54696137 0 2.0960002
0.5564056 0 2.0940001
0.56583089 0 2.092
0.57551235 0 2.0910001
0.5854643 0 2.0910001
0.59541625 0 2.0910001
0.60536814 0 2.0910001
0.61590868 0 2.0930002
0.62646812 0 2.095
0.63704669 0 2.0970001
0.64795285 0 2.1000001
0.65857416 0 2.102
0.66953266 0 2.105
0.68181103 0 2.112
0.70332843 0 2.1470001
0.72650838 0 2.1860001
0.74904829 0 2.2220001
0.77603322 0 2.2700002
0.80486149 0 2.322
0.83031964 0 2.3630002
0.85794866 0 2.4090002
0.88709831 0 2.4580002
0.90135664 0 2.4650002
0.91753364 0 2.4770002
0.93082339 0 2.4810002
0.9430114 0 2.4820001
0.95482427 0 2.4820001
0.96585816 0 2.48
0.97608465 0 2.4760001
0.97988939 0 2.4560001
0.98996359 0 2.4520001
0.98978728 0 2.4230001
1.0000795 0 2.4200001
1.0090892 0 2.414
1.0188874 0 2.4100001
1.0290749 0 2.4070001
1.0392339 0 2.404
1.0493644 0 2.401
1.0590245 0 2.3970001
1.0690931 0 2.3940001
1.0795845 0 2.3920002
1.0891446 0 2.388
1.09498 0 2.3760002
1.1039602 0 2.3710001
1.1138337 0 2.368
1.1232035 0 2.3640001
1.1272564 0 2.3490002
1.1423134 0 2.3570001
1.1486373 0 2.3470001
1.157831 0 2.3430002
1.1694812 0 2.3440001
1.1786226 0 2.3400002
1.1882343 0 2.3370001
1.1973041 0 2.3330002
1.2063359 0 2.329
1.2158526 0 2.3260002
1.2263954 0 2.325
1.2358643 0 2.322
1.2453047 0 2.319
1.2552582 0 2.3170002
1.2651927 0 2.3150001
1.274557 0 2.312
1.2838925 0 2.309
1.2971253 0 2.3130002
1.3064371 0 2.3100002
1.3157204 0 2.3070002
1.3267003 0 2.3070002
1.3347812 0 2.302
1.3451526 0 2.3010001
1.3555148 0 2.3000002
1.3522027 0 2.276
1.3558487 0 2.2640002
1.3557585 0 2.2460001
1.3475881 0 2.2150002
1.3562907 0 2.2120001
1.3470453 0 2.1800001
1.3561757 0 2.1780002
1.3652866 0 2.1760001
1.3775398 0 2.1790001
1.3879105 0 2.1790001
1.3982812 0 2.1790001
1.4092984 0 2.1800001
1.4209765 0 2.1820002
1.4366093 0 2.1900001
1.4470325 0 2.1900001
1.4567901 0 2.1890001
1.4658678 0 2.187
1.4735767 0 2.1830001
1.481927 0 2.1800001
1.4806653 0 2.1630001
1.4833777 0 2.1520002
1.4686338 0 2.1160002
1.4766082 0 2.1130002
1.4824433 0 2.1070001
1.4868048 0 2.0990002
1.4939421 0 2.095
1.4974526 0 2.0860002
1.5037676 0 2.0810001
1.5107623 0 2.0770001
1.5177191 0 2.0730002
1.5261116 0 2.0710001
1.53671 0 2.072
1.547318 0 2.0730002
1.5594379 0 2.0760002
1.5723422 0 2.0800002
1.5852844 0 2.0840001
1.5997957 0 2.0900002
1.6151344 0 2.0970001
1.6289896 0 2.102
1.642113 0 2.1060002
1.6544898 0 2.1090002
1.6653165 0 2.1100001
1.6737708 0 2.108
1.6790111 0 2.102
1.6849977 0 2.0970001
1.6917452 0 2.0930002
1.6984543 0 2.089
1.7075789 0 2.0880001
1.7158716 0 2.0860002
1.726627 0 2.0870001
1.7365597 0 2.0870001
1.7473295 0 2.0880001
1.7589505 0 2.0900002
1.7705902 0 2.092
1.7813982 0 2.0930002
1.7930713 0 2.095
1.8047636 0 2.0970001
1.8156095 0 2.098
1.826465 0 2.0990002
1.8425794 0 2.1060002
1.8534822 0 2.1070001
1.8635104 0 2.1070001
1.876206 0 2.1100001
1.9023396 0 2.128
1.8962908 0 2.1100001
0 -0 0
0 -0 0
0 -0 0
0 -0 0
0 -0 0
0 -0 0
0 -0 0
0 -0 0
0 -0 0
0 -0 0
0 -0 0
0 -0 0
0 -0 0
0 -0 0
0 -0 0
0 -0 0
0 -0 0
0 -0 0
0 -0 0
-0 -0 0
-0 -0 0
-0 -0 0
-0 -0 0
-0 -0 0
-0 -0 0
-0 -0 0
-0 -0 0
-3.94996 0 4.006
-3.9083252 0 3.9830003
-3.8893683 0 3.9830003
-3.8704119 0 3.9830003
-3.8282473 0 3.9590001
-3.7872739 0 3.9360001
-3.7685411 0 3.9360001
-3.727896 0 3.9130001
-3.7310748 0 3.9360001
-3.7123418 0 3.9360001
-3.7151923 0 3.9590001
-3.6963499 0 3.9590001
-3.6998012 0 3.9830003
-3.7020993 0 4.006
-3.683033 0 4.006
-3.6859181 0 4.0300002
-3.6894841 0 4.0550003
-3.7145343 0 4.1040001
-3.7175105 0 4.1290002
-3.7435336 0 4.1800003
-3.7708528 0 4.2330003
-3.7985537 0 4.2870002
-3.8266215 0 4.342
-3.8059561 0 4.342
-3.7608809 0 4.3140001
-3.7403488 0 4.3140001
-3.6732545 0 4.2600002
-3.6075315 0 4.2070003
-3.5644846 0 4.1800003
-3.5445902 0 4.1800003
-3.5246959 0 4.1800003
-3.5048015 0 4.1800003
-3.5074172 0 4.2070003
-3.4873943 0 4.2070003
-3.4888005 0 4.2330003
-3.4907784 0 4.2600002
-3.4924996 0 4.2870002
-3.4939637 0 4.3140001
-3.4734316 0 4.3140001
-3.4528992 0 4.3140001
-3.4108853 0 4.2870002
-3.369128 0 4.2600002
-3.3276277 0 4.2330003
-3.2660694 0 4.1800003
-3.2267601 0 4.1550002
-0 -0 0
-0 -0 0
-0 -0 0
-0 -0 0
-0 -0 0
-0 -0 0
-0 -0 0
-1.7421726 0 2.3590002
-1.7287438 0 2.3560002
-1.7138854 0 2.3510001
-1.699075 0 2.3460002
-1.6864704 0 2.3440001
-1.6753143 0 2.3440001
-1.6648682 0 2.345
-1.655823 0 2.348
-1.6474496 0 2.352
-1.639734 0 2.3570001
-1.6326617 0 2.3630002
-1.6255322 0 2.3690002
-1.6176642 0 2.3740001
-1.6104252 0 2.3800001
-1.6017853 0 2.3840001
-1.5931075 0 2.388
-1.5843915 0 2.3920002
-1.5756373 0 2.3960001
-1.5674981 0 2.401
-1.5593113 0 2.4060001
-1.5510767 0 2.411
-1.5440719 0 2.4180002
-1.5350989 0 2.4220002
-1.5304911 0 2.4330001
-1.5220331 0 2.4380002
-1.5122882 0 2.4410002
-1.504359 0 2.447
-1.4933228 0 2.4480002
-1.4804612 0 2.4460001
-1.4664177 0 2.4420002
-1.4524124 0 2.4380002
-1.4266253 0 2.414
-1.4163085 0 2.4160001
-1.3862031 0 2.3840001
-1.3719732 0 2.3790002
-1.3560748 0 2.3710001
-1.34082 0 2.3640001
-1.3261943 0 2.358
-1.3121833 0 2.3530002
-1.296561 0 2.345
-1.2804672 0 2.3360002
-1.2688056 0 2.335
-1.2544606 0 2.329
-1.2289616 0 2.302
-1.2190636 0 2.3040001
-1.1970866 0 2.283
-1.1857014 0 2.2820001
-1.1660882 0 2.2650001
-1.1532679 0 2.2610002
-1.1374538 0 2.2510002
-1.1197325 0 2.237
-1.1125565 0 2.2440002
-1.0822349 0 2.204
-1.0688276 0 2.1980002
-1.0574033 0 2.1960001
-1.0459981 0 2.194
-1.035556 0 2.194
-1.0251138 0 2.194
-1.0155966 0 2.1960001
-1.0065181 0 2.1990001
-0.99922293 0 2.2060001
-1.0012732 0 2.2340002
-0.9919709 0 2.237
-0.98878175 0 2.2540002
-0.97848791 0 2.2550001
-0.98835516 0 2.3030002
-0.97781861 0 2.3040001
-0.96769214 0 2.306
-0.95920622 0 2.312
-0.95107335 0 2.319
-0.94165778 0 2.3230002
-0.93260461 0 2.3280001
-0.9231081 0 2.332
-0.91318238 0 2.335
-0.90361452 0 2.3390002
-0.89400858 0 2.3430002
-0.88436443 0 2.3470001
-0.8750543 0 2.352
-0.86386007 0 2.352
-0.85447866 0 2.3570001
-0.84469181 0 2.3610001
-0.83345479 0 2.3610001
-0.82326263 0 2.3640001
-0.82128561 0 2.391
-0.8132931 0 2.401
-0.80253375 0 2.4030001
-0 -0 0
-0 -0 0
-0 -0 0
-0 -0 0
-0 -0 0
-0 -0 0
-0 -0 0
-0 -0 0
-0.37323752 0 1.2820001
-0.3665632 0 1.2800001
-0.35934466 0 1.276
-0.35216424 0 1.2720001
-0.34474978 0 1.2670001
-0.33738288 0 1.2620001
-0.33006361 0 1.2570001
-0.32279193 0 1.2520001
-0.31582087 0 1.248
-0.30888796 0 1.2440001
-0.30199304 0 1.24
-0.29513624 0 1.2360001
-0.28831753 0 1.2320001
-0.28153688 0 1.228
-0.27479431 0 1.2240001
-0.26787007 0 1.2190001
-0.26099339 0 1.2140001
-0.25437456 0 1.21
-0.24758832 0 1.205
-0.24105042 0 1.2010001
-0.23435462 0 1.1960001
-0.2277064 0 1.1910001
-0.22129223 0 1.187
-0.21491612 0 1.1830001
-0.20857808 0 1.179
-0.20227815 0 1.1750001
-0.19584888 0 1.1700001
-0.18962982 0 1.166
-0.18329099 0 1.161
-0.17715286 0 1.1570001
-0.17105278 0 1.153
-0.16499081 0 1.149
-0.15896693 0 1.1450001
-0.15298107 0 1.141
-0.14703332 0 1.1370001
-0.14112364 0 1.133
-0.13525204 0 1.1290001
-0.12941851 0 1.125
-0.12362305 0 1.1210001
-0.11786568 0 1.1170001
-0.11224714 0 1.1140001
-0.10665714 0 1.1110001
-0.10109571 0 1.108
-0.095562831 0 1.105
-0.090058513 0 1.102
-0.084659718 0 1.1
-0.079279959 0 1.098
-0.073919237 0 1.0960001
-0.06857755 0 1.0940001
-0.0632549 0 1.092
-0.05795129 0 1.09
-0.05266672 0 1.0880001
-0.047444832 0 1.087
-0.042232465 0 1.0860001
-0.037063744 0 1.0860001
-0.031924389 0 1.087
-0.02677552 0 1.0880001
-0.021636982 0 1.09
-0.016479405 0 1.092
-0.011323454 0 1.0960001
-0.0061294269 0 1.1
-0.00089895132 0 1.1060001
0.0043886378 0 1.1120001
0.0097420458 0 1.1190001
0.015162085 0 1.126
0.020648755 0 1.133
0.026202062 0 1.1400001
0.031821996 0 1.1470001
0.037508558 0 1.154
0.043224499 0 1.1600001
0.048997544 0 1.166
0.054780927 0 1.171
0.060508817 0 1.174
0.066208966 0 1.176
0.071867093 0 1.177
0 -0 0
0 -0 0
0 -0 0
0 -0 0
0 -0 0
0 -0 0
0 -0 0
0.22979459 0 2.3180001
0.24061912 0 2.3160002
0.25153324 0 2.3150001
0.26232448 0 2.3130002
0.27309662 0 2.3110001
0.28372684 0 2.3080001
0.29420081 0 2.3040001
0.30450425 0 2.299
0.31462285 0 2.2930002
0.32482633 0 2.2880001
0.33410189 0 2.2770002
0.34190926 0 2.2570002
0.35155749 0 2.25
0.36033413 0 2.2380002
0.36965951 0 2.23
0.37959093 0 2.2260001
0.3887831 0 2.2180002
0.3950184 0 2.194
0.4039821 0 2.1860001
0.41286969 0 2.1780002
0.42206976 0 2.1720002
0.43061543 0 2.1630001
0.43785238 0 2.148
0.44744986 0 2.1450002
0.45637861 0 2.1390002
0.46546838 0 2.1340001
0.47428769 0 2.128
0.4832775 0 2.1230001
0.49221975 0 2.118
0.50135154 0 2.1140001
0.51020336 0 2.1090002
0.51925421 0 2.105
0.52851844 0 2.102
0.537498 0 2.098
0.54696137 0 2.0960002
0.55613995 0 2.0930002
0.56556046 0 2.0910001
0.57551235 0 2.0910001
0.58518434 0 2.0900002
0.59541625 0 2.0910001
0.60565764 0 2.092
0.61590868 0 2.0930002
0.62646812 0 2.095
0.63704669 0 2.0970001
0.64795285 0 2.1000001
0.65857416 0 2.102
0.66953266 0 2.105
0.68181103 0 2.112
0.70398366 0 2.1490002
0.72684067 0 2.187
0.74904829 0 2.2220001
0.77603322 0 2.2700002
0.80416828 0 2.3200002
0.82750851 0 2.355
0.8583048 0 2.4100001
0.88673735 0 2.457
0.90099096 0 2.4640002
0.91790402 0 2.4780002
0.93044811 0 2.48
0.9430114 0 2.4820001
0.95482427 0 2.4820001
0.96430033 0 2.4760001
0.97450781 0 2.4720001
0.98028833 0 2.457
0.99036729 0 2.4530001
0.99019575 0 2.424
1.0004928 0 2.421
1.0099254 0 2.4160001
1.019733 0 2.4120002
1.02993 0 2.4090002
1.0396663 0 2.4050002
1.0502385 0 2.4030001
1.0603499 0 2.4000001
1.0699863 0 2.3960001
1.0804871 0 2.3940001
1.0891446 0 2.388
1.1000493 0 2.3870001
1.1086162 0 2.381
1.112893 0 2.3660002
1.1222533 0 2.3620002
1.1253368 0 2.345
1.1374669 0 2.3470001
1.1476585 0 2.345
1.1598077 0 2.3470001
1.1689823 0 2.3430002
1.1816447 0 2.3460002
1.1887426 0 2.3380001
1.1988437 0 2.3360002
1.2078898 0 2.332
1.2179434 0 2.3300002
1.2279778 0 2.3280001
1.2379934 0 2.3260002
1.2463787 0 2.3210001
1.2563417 0 2.319
1.2651927 0 2.3150001
1.274557 0 2.312
1.2833365 0 2.3080001
1.2954429 0 2.3100002
1.3041749 0 2.306
1.3134391 0 2.3030002
1.3249751 0 2.3040001
1.3324618 0 2.2980001
1.3428143 0 2.2970002
1.3537468 0 2.2970002
1.3545792 0 2.2800002
1.353453 0 2.26
1.3587767 0 2.2510002
1.3463713 0 2.2130001
1.3569038 0 2.2130001
1.3458096 0 2.1780002
1.3549303 0 2.1760001
1.3640317 0 2.174
1.3769076 0 2.1780002
1.3866366 0 2.177
1.3976395 0 2.1780002
1.4086521 0 2.1790001
1.4209765 0 2.1820002
1.4366093 0 2.1900001
1.4470325 0 2.1900001
1.4567901 0 2.1890001
1.4658678 0 2.187
1.4729016 0 2.1820002
1.481927 0 2.1800001
1.4895644 0 2.1760001
1.4854456 0 2.1550002
1.4915378 0 2.1490002
1.4794034 0 2.1170001
1.4824433 0 2.1070001
1.4882214 0 2.1010001
1.4953685 0 2.0970001
1.4988883 0 2.0880001
1.5052129 0 2.0830002
1.5114897 0 2.0780001
1.5184513 0 2.0740001
1.5268484 0 2.072
1.5359684 0 2.0710001
1.5465715 0 2.072
1.5586865 0 2.075
1.5708301 0 2.0780001
1.5837629 0 2.082
1.5974994 0 2.0870001
1.6128237 0 2.0940001
1.6282146 0 2.1010001
1.6413331 0 2.105
1.6529207 0 2.1070001
1.6629487 0 2.1070001
1.6721829 0 2.1060002
1.6790111 0 2.102
1.6833906 0 2.095
1.6909367 0 2.092
1.6976413 0 2.0880001
1.7067611 0 2.0870001
1.7158716 0 2.0860002
1.726627 0 2.0870001
1.7373918 0 2.0880001
1.7481663 0 2.089
1.7589505 0 2.0900002
1.7714367 0 2.0930002
1.7822492 0 2.0940001
1.7947831 0 2.0970001
1.8064849 0 2.0990002
1.8173403 0 2.1000001
1.8273351 0 2.1000001
1.8478286 0 2.112
1.8578806 0 2.112
1.8608571 0 2.1040001
1.8788736 0 2.1130002
1.872839 0 2.095
1.9016832 0 2.1160002
0 -0 0
0 -0 0
0 -0 0
0 -0 0
0 -0 0
0 -0 0
0 -0 0
0 -0 0
0 -0 0
0 -0 0
0 -0 0
0 -0 0
0 -0 0
0 -0 0
0 -0 0
0 -0 0
0 -0 0
0 -0 0
0 -0 0
-0 -0 0
-0 -0 0
-0 -0 0
-0 -0 0
-0 -0 0
-0 -0 0
-0 -0 0
-0 -0 0
-3.94996 0 4.006
-3.9083252 0 3.9830003
-3.8893683 0 3.9830003
-3.84709 0 3.9590001
-3.8282473 0 3.9590001
-3.7872739 0 3.9360001
-3.7465196 0 3.9130001
-3.7069368 0 3.8910003
-3.7092721 0 3.9130001
-3.6906488 0 3.9130001
-3.6936088 0 3.9360001
-3.6748757 0 3.9360001
-3.6775074 0 3.9590001
-3.6808443 0 3.9830003
-3.683033 0 4.006
-3.7087836 0 4.0550003
-3.7113204 0 4.079
-3.7145343 0 4.1040001
-3.7175105 0 4.1290002
-3.7435336 0 4.1800003
-3.7708528 0 4.2330003
-3.7985537 0 4.2870002
-3.8266215 0 4.342
-3.8059561 0 4.342
-3.785291 0 4.342
-3.7646255 0 4.342
-3.7198167 0 4.3140001
-3.6761322 0 4.2870002
-3.6327043 0 4.2600002
-3.5674858 0 4.2070003
-3.5474632 0 4.2070003
-3.5048015 0 4.1800003
-3.4849072 0 4.1800003
-3.4650128 0 4.1800003
-3.4673717 0 4.2070003
-3.4686539 0 4.2330003
-3.4705033 0 4.2600002
-3.472096 0 4.2870002
-3.4734316 0 4.3140001
-3.4528992 0 4.3140001
-3.4108853 0 4.2870002
-3.369128 0 4.2600002
-3.3276277 0 4.2330003
-3.2660694 0 4.1800003
-3.2065685 0 4.1290002
-0 -0 0
-0 -0 0
-0 -0 0
-0 -0 0
-0 -0 0
-0 -0 0
-0 -0 0
-1.742911 0 2.3600001
-1.7294774 0 2.3570001
-1.7146144 0 2.352
-1.6997992 0 2.3470001
-1.6871898 0 2.345
-1.676029 0 2.345
-1.6655782 0 2.3460002
-1.6565282 0 2.3490002
-1.6481501 0 2.3530002
-1.6418211 0 2.3600001
-1.6347345 0 2.3660002
-1.6275907 0 2.3720002
-1.6197084 0 2.3770001
-1.6131318 0 2.3840001
-1.6044728 0 2.388
-1.5951089 0 2.391
-1.587041 0 2.3960001
-1.5776103 0 2.3990002
-1.5694567 0 2.404
-1.5612556 0 2.4090002
-1.5530066 0 2.414
-1.545349 0 2.4200001
-1.5370003 0 2.4250002
-1.5304911 0 2.4330001
-1.5220331 0 2.4380002
-1.5135272 0 2.4430001
-1.5037442 0 2.4460001
-1.4921029 0 2.4460001
-1.4792507 0 2.444
-1.4652166 0 2.4400001
-1.4506252 0 2.4350002
-1.4272164 0 2.4150002
-1.4157224 0 2.4150002
-1.3879474 0 2.3870001
-1.3725498 0 2.3800001
-1.354359 0 2.368
-1.3391185 0 2.3610001
-1.3239446 0 2.3540001
-1.3099526 0 2.3490002
-1.2960082 0 2.3440001
-1.2788227 0 2.3330002
-1.2671754 0 2.332
-1.2533834 0 2.3270001
-1.2289616 0 2.302
-1.2116562 0 2.2900002
-1.2012814 0 2.2910001
-1.1805054 0 2.2720001
-1.166603 0 2.266
-1.1532679 0 2.2610002
-1.1389698 0 2.2540002
-1.123737 0 2.2450001
-1.1145395 0 2.2480001
-1.0881273 0 2.2160001
-1.0761217 0 2.2130001
-1.0646261 0 2.2110002
-1.0474284 0 2.197
-1.0369719 0 2.197
-1.0265156 0 2.197
-1.0169841 0 2.1990001
-1.0078913 0 2.2020001
-1.0001289 0 2.2080002
-1.0008249 0 2.233
-0.9919709 0 2.237
-0.99492323 0 2.2680001
-0.97762001 0 2.253
-0.98792595 0 2.302
-0.97824299 0 2.3050001
-0.96811181 0 2.3070002
-0.95962119 0 2.3130002
-0.95107335 0 2.319
-0.94165778 0 2.3230002
-0.93220407 0 2.3270001
-0.9231081 0 2.332
-0.9135735 0 2.3360002
-0.90361452 0 2.3390002
-0.89477164 0 2.345
-0.88474119 0 2.348
-0.8739382 0 2.3490002
-0.86422747 0 2.3530002
-0.85629135 0 2.3620002
-0.84540737 0 2.3630002
-0.83416086 0 2.3630002
-0.82395917 0 2.3660002
-0.81613332 0 2.3760002
-0.81397063 0 2.4030001
-0.8035357 0 2.4060001
-0 -0 0
-0 -0 0
-0 -0 0
-0 -0 0
-0 -0 0
-0 -0 0
-0 -0 0
-0 -0 0
-0.37294635 0 1.281
-0.3665632 0 1.2800001
-0.35962629 0 1.2770001
-0.35216424 0 1.2720001
-0.34474978 0 1.2670001
-0.33738288 0 1.2620001
-0.33006361 0 1.2570001
-0.32279193 0 1.2520001
-0.31582087 0 1.248
-0.30888796 0 1.2440001
-0.30199304 0 1.24
-0.29513624 0 1.2360001
-0.28831753 0 1.2320001
-0.28153688 0 1.228
-0.27479431 0 1.2240001
-0.26787007 0 1.2190001
-0.26099339 0 1.2140001
-0.25437456 0 1.21
-0.24779379 0 1.2060001
-0.24105042 0 1.2010001
-0.23455055 0 1.197
-0.22789758 0 1.192
-0.22147867 0 1.1880001
-0.21491612 0 1.1830001
-0.20857808 0 1.179
-0.20227815 0 1.1750001
-0.19584888 0 1.1700001
-0.18962982 0 1.166
-0.18344888 0 1.1620001
-0.17730598 0 1.1580001
-0.17105278 0 1.153
-0.16499081 0 1.149
-0.15896693 0 1.1450001
-0.15298107 0 1.141
-0.14703332 0 1.1370001
-0.14112364 0 1.133
-0.13525204 0 1.1290001
-0.12941851 0 1.125
-0.12362305 0 1.1210001
-0.11786568 0 1.1170001
-0.11224714 0 1.1140001
-0.10665714 0 1.1110001
-0.10109571 0 1.108
-0.095562831 0 1.105
-0.090140238 0 1.103
-0.08473669 0 1.1010001
-0.079279959 0 1.098
-0.073919237 0 1.0960001
-0.06857755 0 1.0940001
-0.0632549 0 1.092
-0.05795129 0 1.09
-0.05266672 0 1.0880001
-0.047444832 0 1.087
-0.042232465 0 1.0860001
-0.037063744 0 1.0860001
-0.031924389 0 1.087
-0.02677552 0 1.0880001
-0.021636982 0 1.09
-0.016479405 0 1.092
-0.011323454 0 1.0960001
-0.0061349995 0 1.1010001
-0.00089976407 0 1.107
0.0043925843 0 1.113
0.0097507508 0 1.12
0.015175551 0 1.1270001
0.020648755 0 1.133
0.026225043 0 1.141
0.031821996 0 1.1470001
0.037508558 0 1.154
0.043261759 0 1.161
0.048997544 0 1.166
0.054780927 0 1.171
0.060560361 0 1.1750001
0.06626527 0 1.177
0.071928158 0 1.1780001
0 -0 0
0 -0 0
0 -0 0
0 -0 0
0 -0 0
0 -0 0
0 -0 0
0.22989371 0 2.319
0.2405152 0 2.3150001
0.25153324 0 2.3150001
0.26232448 0 2.3130002
0.27309662 0 2.3110001
0.28372684 0 2.3080001
0.29420081 0 2.3040001
0.30450425 0 2.299
0.31476006 0 2.2940001
0.32496831 0 2.289
0.33366168 0 2.2740002
0.34190926 0 2.2570002
0.35140127 0 2.2490001
0.35904604 0 2.23
0.36733881 0 2.2160001
0.37566882 0 2.2030001
0.3842257 0 2.1920002
0.39375809 0 2.187
0.40324289 0 2.1820002
0.41249055 0 2.1760001
0.42168111 0 2.1700001
0.42902279 0 2.1550002
0.43826011 0 2.1500001
0.44724122 0 2.1440001
0.45616519 0 2.138
0.46503216 0 2.1320002
0.4740648 0 2.1270001
0.4830499 0 2.1220002
0.49175498 0 2.1160002
0.5008772 0 2.112
0.50996143 0 2.108
0.51900756 0 2.1040001
0.52801561 0 2.1000001
0.53724182 0 2.0970001
0.54670036 0 2.095
0.55587417 0 2.092
0.56556046 0 2.0910001
0.57523715 0 2.0900002
0.58518434 0 2.0900002
0.59541625 0 2.0910001
0.60565764 0 2.092
0.61590868 0 2.0930002
0.62616909 0 2.0940001
0.63674289 0 2.0960002
0.64764434 0 2.0990002
0.65826088 0 2.1010001
0.66921461 0 2.1040001
0.68536216 0 2.1230001
0.70431119 0 2.1500001
0.72750545 0 2.1890001
0.74938536 0 2.223
0.77603322 0 2.2700002
0.80416828 0 2.3200002
0.82926548 0 2.3600001
0.85438728 0 2.3990002
0.87554944 0 2.4260001
0.90062523 0 2.4630001
0.91382933 0 2.467
0.93007296 0 2.4790001
0.94263154 0 2.4810002
0.95251602 0 2.4760001
0.96391088 0 2.4750001
0.97411364 0 2.4710002
0.98148531 0 2.46
0.99077106 0 2.4540002
0.99509776 0 2.4360001
1.0009061 0 2.4220002
1.0103433 0 2.4170001
1.019733 0 2.4120002
1.02993 0 2.4090002
1.0405308 0 2.4070001
1.0506755 0 2.404
1.0607917 0 2.401
1.071326 0 2.3990002
1.0809386 0 2.3950002
1.0886885 0 2.3870001
1.0991277 0 2.3850002
1.1137381 0 2.3920002
1.1086596 0 2.3570001
1.1179771 0 2.3530002
1.1277363 0 2.3500001
1.1364976 0 2.345
1.1471691 0 2.3440001
1.1593136 0 2.3460002
1.1679844 0 2.3410001
1.1811409 0 2.345
1.1923018 0 2.345
1.2024362 0 2.3430002
1.2130694 0 2.342
1.222648 0 2.3390002
1.2321978 0 2.3360002
1.2385255 0 2.3270001
1.2463787 0 2.3210001
1.2552582 0 2.3170002
1.2640997 0 2.3130002
1.2729031 0 2.309
1.2816683 0 2.3050001
1.2909565 0 2.302
1.3019127 0 2.302
1.3105875 0 2.2980001
1.315774 0 2.2880001
1.3295628 0 2.2930002
1.3404759 0 2.2930002
1.3519787 0 2.2940001
1.3611145 0 2.2910001
1.3528541 0 2.2590001
1.3587767 0 2.2510002
1.345763 0 2.2120001
1.3581301 0 2.2150002
1.3451916 0 2.177
1.3543077 0 2.1750002
1.3690512 0 2.1820002
1.3775398 0 2.1790001
1.3866366 0 2.177
1.3976395 0 2.1780002
1.4125308 0 2.1850002
1.4242326 0 2.187
1.4352974 0 2.1880002
1.445711 0 2.1880002
1.455459 0 2.187
1.4651976 0 2.1860001
1.4735767 0 2.1830001
1.481927 0 2.1800001
1.4895644 0 2.1760001
1.4916493 0 2.164
1.4991724 0 2.1600001
1.4828975 0 2.1220002
1.5021435 0 2.135
1.4903464 0 2.1040001
1.4967947 0 2.0990002
1.500324 0 2.0900002
1.5059354 0 2.0840001
1.512217 0 2.079
1.5184513 0 2.0740001
1.5261116 0 2.0710001
1.5359684 0 2.0710001
1.5450788 0 2.0700002
1.5571843 0 2.0730002
1.5693184 0 2.0760002
1.5822415 0 2.0800002
1.5959684 0 2.085
1.6112833 0 2.092
1.6266648 0 2.0990002
1.6405535 0 2.1040001
1.6529207 0 2.1070001
1.6629487 0 2.1070001
1.6721829 0 2.1060002
1.6790111 0 2.102
1.6833906 0 2.095
1.6901284 0 2.0910001
1.6984543 0 2.089
1.7067611 0 2.0870001
1.716694 0 2.0870001
1.726627 0 2.0870001
1.7382238 0 2.089
1.7473295 0 2.0880001
1.7589505 0 2.0900002
1.7714367 0 2.0930002
1.7813982 0 2.0930002
1.7947831 0 2.0970001
1.8047636 0 2.0970001
1.8147441 0 2.0970001
1.8238544 0 2.0960002
1.846079 0 2.1100001
1.8552418 0 2.1090002
1.8643948 0 2.108
1.8744276 0 2.108
1.8701571 0 2.092
1.863937 0 2.0740001
0 -0 0
0 -0 0
0 -0 0
0 -0 0
0 -0 0
0 -0 0
0 -0 0
0 -0 0
0 -0 0
0 -0 0
0 -0 0
0 -0 0
0 -0 0
0 -0 0
0 -0 0
0 -0 0
0 -0 0
0 -0 0
0 -0 0
-0 -0 0
-0 -0 0
-0 -0 0
-0 -0 0
-0 -0 0
-0 -0 0
-0 -0 0
-0 -0 0
-3.94996 0 4.006
-3.9083252 0 3.9830003
-3.8893683 0 3.9830003
-3.84709 0 3.9590001
-3.8060071 0 3.9360001
-3.7651429 0 3.9130001
-3.7465196 0 3.9130001
-3.7069368 0 3.8910003
-3.7092721 0 3.9130001
-3.6906488 0 3.9130001
-3.6936088 0 3.9360001
-3.6748757 0 3.9360001
-3.6775074 0 3.9590001
-3.6808443 0 3.9830003
-3.683033 0 4.006
-3.6859181 0 4.0300002
-3.6894841 0 4.0550003
-3.6919067 0 4.079
-3.7175105 0 4.1290002
-3.721144 0 4.1550002
-3.7708528 0 4.2330003
-3.7985537 0 4.2870002
-3.8266215 0 4.342
-3.8059561 0 4.342
-3.8105729 0 4.3710003
-3.7897694 0 4.3710003
-3.7439601 0 4.342
-3.6992848 0 4.3140001
-3.6557283 0 4.2870002
-3.5895336 0 4.2330003
-3.5474632 0 4.2070003
-3.5048015 0 4.1800003
-3.4640644 0 4.1550002
-3.4227362 0 4.1290002
-3.4245136 0 4.1550002
-3.4252241 0 4.1800003
-3.4273257 0 4.2070003
-3.4502285 0 4.2600002
-3.4516923 0 4.2870002
-3.4312887 0 4.2870002
-3.4108853 0 4.2870002
-3.369128 0 4.2600002
-3.3276277 0 4.2330003
-3.2871661 0 4.2070003
-3.2461751 0 4.1800003
-0 -0 0
-0 -0 0
-0 -0 0
-0 -0 0
-0 -0 0
-0 -0 0
-0 -0 0
-1.742911 0 2.3600001
-1.7294774 0 2.3570001
-1.7153435 0 2.3530002
-1.6997992 0 2.3470001
-1.6871898 0 2.345
-1.676029 0 2.345
-1.6655782 0 2.3460002
-1.6565282 0 2.3490002
-1.6481501 0 2.3530002
-1.6425167 0 2.3610001
-1.6326617 0 2.3630002
-1.6262183 0 2.3700001
-1.6237969 0 2.3830001
-1.6144851 0 2.3860002
-1.6058166 0 2.3900001
-1.5971103 0 2.3940001
-1.5890281 0 2.3990002
-1.5802406 0 2.4030001
-1.5714152 0 2.4070001
-1.5631999 0 2.4120002
-1.5549366 0 2.4170001
-1.5472647 0 2.4230001
-1.5363663 0 2.424
-1.5304911 0 2.4330001
-1.5232816 0 2.4400001
-1.5135272 0 2.4430001
-1.5031295 0 2.4450002
-1.4914929 0 2.4450002
-1.4786454 0 2.4430001
-1.4640157 0 2.4380002
-1.448838 0 2.4320002
-1.4283983 0 2.4170001
-1.4139637 0 2.4120002
-1.3891104 0 2.3890002
-1.3748566 0 2.3840001
-1.3600785 0 2.378
-1.3396857 0 2.3620002
-1.3228197 0 2.352
-1.309395 0 2.348
-1.2926908 0 2.3380001
-1.2733412 0 2.3230002
-1.2584814 0 2.3160002
-1.2383018 0 2.299
-1.2230891 0 2.2910001
-1.216418 0 2.299
-1.1913188 0 2.2720001
-1.1784271 0 2.2680001
-1.1650585 0 2.263
-1.1522477 0 2.2590001
-1.1384643 0 2.253
-1.1252387 0 2.2480001
-1.1155311 0 2.25
-1.0891094 0 2.2180002
-1.0775805 0 2.2160001
-1.0665522 0 2.2150002
-1.0550565 0 2.2130001
-1.044524 0 2.2130001
-1.0339913 0 2.2130001
-1.0243837 0 2.2150002
-1.0088067 0 2.204
-1.0014877 0 2.2110002
-0.99948031 0 2.23
-1.0057175 0 2.2680001
-0.99580061 0 2.2700002
-0.99541074 0 2.2940001
-0.98706764 0 2.3000002
-0.97781861 0 2.3040001
-0.97020996 0 2.312
-0.95962119 0 2.3130002
-0.95107335 0 2.319
-0.94125235 0 2.322
-0.93180346 0 2.3260002
-0.92231649 0 2.3300002
-0.9135735 0 2.3360002
-0.90438712 0 2.3410001
-0.89477164 0 2.345
-0.88398761 0 2.3460002
-0.87468225 0 2.3510001
-0.86532933 0 2.3560002
-0.85846645 0 2.368
-0.84469181 0 2.3610001
-0.83486682 0 2.365
-0.82465559 0 2.368
-0.81578976 0 2.375
-0.81498682 0 2.4060001
-0.80420369 0 2.4080002
-0 -0 0
-0 -0 0
-0 -0 0
-0 -0 0
-0 -0 0
-0 -0 0
-0 -0 0
-0 -0 0
-0.37294635 0 1.281
-0.3665632 0 1.2800001
-0.35934466 0 1.276
-0.35216424 0 1.2720001
-0.34474978 0 1.2670001
-0.33738288 0 1.2620001
-0.33006361 0 1.2570001
-0.32279193 0 1.2520001
-0.31582087 0 1.248
-0.30888796 0 1.2440001
-0.30199304 0 1.24
-0.29513624 0 1.2360001
-0.28831753 0 1.2320001
-0.28153688 0 1.228
-0.27479431 0 1.2240001
-0.26787007 0 1.2190001
-0.26120839 0 1.215
-0.25437456 0 1.21
-0.24779379 0 1.2060001
-0.24105042 0 1.2010001
-0.23455055 0 1.197
-0.22789758 0 1.192
-0.22147867 0 1.1880001
-0.21491612 0 1.1830001
-0.20857808 0 1.179
-0.20227815 0 1.1750001
-0.19601627 0 1.171
-0.18962982 0 1.166
-0.18344888 0 1.1620001
-0.17730598 0 1.1580001
-0.17105278 0 1.153
-0.16499081 0 1.149
-0.15896693 0 1.1450001
-0.15298107 0 1.141
-0.14703332 0 1.1370001
-0.14112364 0 1.133
-0.13525204 0 1.1290001
-0.12941851 0 1.125
-0.12362305 0 1.1210001
-0.11786568 0 1.1170001
-0.11224714 0 1.1140001
-0.10665714 0 1.1110001
-0.10109571 0 1.108
-0.095562831 0 1.105
-0.090140238 0 1.103
-0.08473669 0 1.1010001
-0.079279959 0 1.098
-0.073919237 0 1.0960001
-0.06857755 0 1.0940001
-0.0632549 0 1.092
-0.05795129 0 1.09
-0.05266672 0 1.0880001
-0.047444832 0 1.087
-0.042232465 0 1.0860001
-0.037063744 0 1.0860001
-0.031924389 0 1.087
-0.02677552 0 1.0880001
-0.021636982 0 1.09
-0.016494496 0 1.0930001
-0.011333785 0 1.097
-0.0061405716 0 1.102
-0.00089976407 0 1.107
0.0043965308 0 1.1140001
0.0097594578 0 1.1210001
0.015175551 0 1.1270001
0.020666981 0 1.1340001
0.026225043 0 1.141
0.031849738 0 1.148
0.037508558 0 1.154
0.043261759 0 1.161
0.049039569 0 1.1670001
0.054827709 0 1.1720001
0.060560361 0 1.1750001
0.066321574 0 1.1780001
0.071989216 0 1.179
0 -0 0
0 -0 0
0 -0 0
0 -0 0
0 -0 0
0 -0 0
0 -0 0
0 -0 0
0.24093078 0 2.319
0.25131595 0 2.3130002
0.26221105 0 2.312
0.27297848 0 2.3100002
0.28360391 0 2.3070002
0.29420081 0 2.3040001
0.30450425 0 2.299
0.31489727 0 2.2950001
0.32511029 0 2.2900002
0.33336821 0 2.2720001
0.34206074 0 2.2580001
0.35155749 0 2.25
0.35856304 0 2.227
0.36733881 0 2.2160001
0.37549829 0 2.2020001
0.38352457 0 2.1880002
0.39321795 0 2.184
0.40287328 0 2.1800001
0.41135317 0 2.1700001
0.42070949 0 2.1650002
0.42882368 0 2.154
0.43764856 0 2.1470001
0.44661543 0 2.141
0.45595187 0 2.1370001
0.46481401 0 2.131
0.47384194 0 2.1260002
0.48282221 0 2.1210001
0.49175498 0 2.1160002
0.5008772 0 2.112
0.50947762 0 2.1060002
0.51876092 0 2.1030002
0.5277642 0 2.0990002
0.53698564 0 2.0960002
0.54617852 0 2.0930002
0.55587417 0 2.092
0.56528997 0 2.0900002
0.57523715 0 2.0900002
0.58518434 0 2.0900002
0.59541625 0 2.0910001
0.60565764 0 2.092
0.61561435 0 2.092
0.62616909 0 2.0940001
0.63674289 0 2.0960002
0.64733571 0 2.098
0.65826088 0 2.1010001
0.66921461 0 2.1040001
0.68665344 0 2.1270001
0.70529395 0 2.1530001
0.72783774 0 2.1900001
0.74837404 0 2.22
0.77637506 0 2.2710001
0.80416828 0 2.3200002
0.82926548 0 2.3600001
0.85367495 0 2.3970001
0.87591028 0 2.427
0.89733434 0 2.4540002
0.91234767 0 2.4630001
0.92894739 0 2.4760001
0.93997192 0 2.4740002
0.95328546 0 2.4780002
0.96468985 0 2.4770002
0.97371936 0 2.47
0.98228329 0 2.4620001
0.99157852 0 2.4560001
0.99509776 0 2.4360001
1.0017326 0 2.424
1.0111793 0 2.4190001
1.0205784 0 2.414
1.0303575 0 2.4100001
1.0405308 0 2.4070001
1.0511127 0 2.4050002
1.0607917 0 2.401
1.071326 0 2.3990002
1.0809386 0 2.3950002
1.0886885 0 2.3870001
1.1028144 0 2.3930001
1.0951136 0 2.352
1.1044263 0 2.348
1.1137009 0 2.3440001
1.1210179 0 2.3360002
1.1316512 0 2.335
1.1427644 0 2.335
1.1583251 0 2.3440001
1.1669866 0 2.3390002
1.1801336 0 2.3430002
1.1917933 0 2.3440001
1.2029493 0 2.3440001
1.2130694 0 2.342
1.2231706 0 2.3400002
1.2327251 0 2.3370001
1.2395899 0 2.329
1.2469157 0 2.322
1.2557999 0 2.3180001
1.2646463 0 2.3140001
1.2734544 0 2.3100002
1.2811123 0 2.3040001
1.2903957 0 2.3010001
1.2990849 0 2.2970002
1.3054546 0 2.289
1.3140486 0 2.2850001
1.3226047 0 2.2810001
1.3340453 0 2.2820001
1.3407809 0 2.2750001
1.3480439 0 2.2690001
1.3516566 0 2.2570002
1.3593804 0 2.2520001
1.3451545 0 2.2110002
1.3569038 0 2.2130001
1.3458096 0 2.1780002
1.3543077 0 2.1750002
1.3634043 0 2.1730001
1.3781719 0 2.1800001
1.3872737 0 2.1780002
1.3976395 0 2.1780002
1.4125308 0 2.1850002
1.4242326 0 2.187
1.4346412 0 2.187
1.4443895 0 2.1860001
1.4547936 0 2.1860001
1.4631867 0 2.1830001
1.4729016 0 2.1820002
1.4812473 0 2.1790001
1.4888799 0 2.1750002
1.4937172 0 2.1670001
1.5033368 0 2.1660001
1.4842951 0 2.1240001
1.5028472 0 2.1360002
1.4988465 0 2.1160002
1.5039257 0 2.1090002
1.5046312 0 2.0960002
1.5073807 0 2.0860002
1.512217 0 2.079
1.5162549 0 2.0710001
1.5246378 0 2.069
1.5337435 0 2.0680001
1.5428394 0 2.0670002
1.5541794 0 2.069
1.5662946 0 2.072
1.5799595 0 2.0770001
1.593672 0 2.082
1.6097429 0 2.0900002
1.6266648 0 2.0990002
1.6405535 0 2.1040001
1.6521363 0 2.1060002
1.6621596 0 2.1060002
1.6713887 0 2.105
1.6790111 0 2.102
1.6833906 0 2.095
1.6909367 0 2.092
1.6984543 0 2.089
1.7075789 0 2.0880001
1.7175165 0 2.0880001
1.7274543 0 2.0880001
1.7382238 0 2.089
1.7473295 0 2.0880001
1.7581087 0 2.089
1.7714367 0 2.0930002
1.800974 0 2.1160002
1.7956389 0 2.098
1.8168124 0 2.1110001
1.8259943 0 2.1100001
1.8351666 0 2.1090002
1.8452041 0 2.1090002
1.8534822 0 2.1070001
1.8617414 0 2.105
1.8717599 0 2.105
1.8782028 0 2.1010001
1.8774177 0 2.089
0 -0 0
0 -0 0
0 -0 0
0 -0 0
0 -0 0
0 -0 0
0 -0 0
0 -0 0
0 -0 0
0 -0 0
0 -0 0
0 -0 0
0 -0 0
0 -0 0
0 -0 0
0 -0 0
0 -0 0
0 -0 0
0 -0 0
-0 -0 0
-0 -0 0
-0 -0 0
-0 -0 0
-0 -0 0
-0 -0 0
-0 -0 0
-0 -0 0
-3.94996 0 4.006
-3.9083252 0 3.9830003
-3.8659325 0 3.9590001
-3.8247402 0 3.9360001
-3.7837667 0 3.9130001
-3.7651429 0 3.9130001
-3.7465196 0 3.9130001
-3.727896 0 3.9130001
-3.7092721 0 3.9130001
-3.7123418 0 3.9360001
-3.6936088 0 3.9360001
-3.6963499 0 3.9590001
-3.6998012 0 3.9830003
-3.6808443 0 3.9830003
-3.7050982 0 4.0300002
-3.6859181 0 4.0300002
-3.6894841 0 4.0550003
-3.6919067 0 4.079
-3.6950018 0 4.1040001
-3.6978588 0 4.1290002
-3.7476914 0 4.2070003
-3.7746301 0 4.2600002
-3.7781501 0 4.2870002
-3.7814131 0 4.3140001
-3.785291 0 4.342
-3.7646255 0 4.342
-3.7439601 0 4.342
-3.6761322 0 4.2870002
-3.6327043 0 4.2600002
-3.5674858 0 4.2070003
-3.5246959 0 4.1800003
-3.4620395 0 4.1290002
-3.421545 0 4.1040001
-3.4020123 0 4.1040001
-3.3824799 0 4.1040001
-3.3834331 0 4.1290002
-3.4053297 0 4.1800003
-3.4073031 0 4.2070003
-3.4299533 0 4.2600002
-3.4312887 0 4.2870002
-3.4108853 0 4.2870002
-3.3904817 0 4.2870002
-3.3700778 0 4.2870002
-3.328578 0 4.2600002
-3.2873347 0 4.2330003
-0 -0 0
-0 -0 0
-0 -0 0
-0 -0 0
-0 -0 0
-0 -0 0
-0 -0 0
-1.742911 0 2.3600001
-1.7294774 0 2.3570001
-1.7153435 0 2.3530002
-1.6997992 0 2.3470001
-1.6871898 0 2.345
-1.676029 0 2.345
-1.6655782 0 2.3460002
-1.6565282 0 2.3490002
-1.6488506 0 2.3540001
-1.6432126 0 2.3620002
-1.6340435 0 2.365
-1.6269044 0 2.3710001
-1.6237969 0 2.3830001
-1.6158383 0 2.388
-1.6064885 0 2.391
-1.5984446 0 2.3960001
-1.5896904 0 2.4000001
-1.581556 0 2.4050002
-1.572721 0 2.4090002
-1.5644959 0 2.414
-1.5562234 0 2.4190001
-1.545349 0 2.4200001
-1.5382679 0 2.427
-1.5311201 0 2.434
-1.523906 0 2.4410002
-1.5141467 0 2.444
-1.5031295 0 2.4450002
-1.4914929 0 2.4450002
-1.4780402 0 2.4420002
-1.4628147 0 2.4360001
-1.4476464 0 2.4300001
-1.4272164 0 2.4150002
-1.4127911 0 2.4100001
-1.3908548 0 2.3920002
-1.3771634 0 2.388
-1.3623663 0 2.3820002
-1.3391185 0 2.3610001
-1.3222573 0 2.3510001
-1.3077219 0 2.345
-1.2921379 0 2.3370001
-1.2706004 0 2.3180001
-1.2557644 0 2.3110001
-1.2366859 0 2.296
-1.2225553 0 2.2900002
-1.2047777 0 2.2770002
-1.1907945 0 2.2710001
-1.1768683 0 2.2650001
-1.163514 0 2.26
-1.1507175 0 2.256
-1.1379591 0 2.2520001
-1.1247382 0 2.2470002
-1.1155311 0 2.25
-1.0896004 0 2.2190001
-1.0785531 0 2.2180002
-1.0675151 0 2.217
-1.0564867 0 2.2160001
-1.0459399 0 2.2160001
-1.0358603 0 2.217
-1.0262336 0 2.2190001
-1.0161302 0 2.22
-1.0019407 0 2.2120001
-0.99903214 0 2.2290001
-1.006161 0 2.2690001
-0.99667794 0 2.2720001
-0.9945429 0 2.2920001
