# .PCD v0.7 - Point Cloud Data file format
VERSION 0.7
FIELDS x y z
SIZE 4 4 4
TYPE F F F
COUNT 1 1 1
WIDTH 2358
HEIGHT 1
VIEWPOINT 0 0 0 1 0 0 0
POINTS 2358
DATA ascii
0.21639217 0 1.9080001
0.22559129 0 1.909
0.2319725 0 1.8870001
0.24005969 0 1.8800001
0.24821268 0 1.8740001
0.25589693 0 1.8650001
0.26392141 0 1.8590001
0.27188876 0 1.853
0.27979901 0 1.8470001
0.28765216 0 1.8410001
0.29528722 0 1.8340001
0.30302134 0 1.8280001
0.31069842 0 1.8220001
0.31849363 0 1.817
0.32606122 0 1.8110001
0.3333869 0 1.8040001
0.34254155 0 1.807
0.34706104 0 1.7860001
0.35556135 0 1.7860001
0.36120784 0 1.7720001
0.36609533 0 1.7550001
0.3731679 0 1.7490001
0.3801834 0 1.743
0.38847905 0 1.743
0.3956365 0 1.738
0.40274638 0 1.733
0.40838572 0 1.7220001
0.41561371 0 1.7180001
0.42206368 0 1.7110001
0.43221849 0 1.7190001
0.43783802 0 1.7090001
0.44518897 0 1.7060001
0.44453993 0 1.6730001
0.45060915 0 1.6660001
0.45688692 0 1.6600001
0.46310759 0 1.654
0.46955588 0 1.649
0.47653559 0 1.646
0.4837811 0 1.6440001
0.49160555 0 1.6440001
0.49973381 0 1.6450001
0.50879723 0 1.649
0.51789874 0 1.6530001
0.52767444 0 1.659
0.5375073 0 1.6650001
0.55263859 0 1.687
0 -0 0
0.57543898 0 1.7070001
0.58390516 0 1.7080001
0.59411395 0 1.7140001
0.61211038 0 1.7420001
0.63144171 0 1.7730001
0.64060187 0 1.7750001
0.65892273 0 1.802
0.67416674 0 1.8200001
0.68583035 0 1.8280001
0.69491053 0 1.8290001
0.70592362 0 1.835
0.71699393 0 1.8410001
0.74113053 0 1.8800001
0.75327003 0 1.8880001
0.77679032 0 1.9240001
0.78921545 0 1.932
0.80212992 0 1.9410001
0.811786 0 1.9420002
0.829907 0 1.9630001
0.84095985 0 1.9670001
0.85291541 0 1.973
0.8706097 0 1.9920001
0.88185769 0 1.9960001
0.90162867 0 2.0190001
0.91394591 0 2.0250001
0.93407375 0 2.0480001
0.94474286 0 2.0500002
0.97126156 0 2.0860002
0.98260069 0 2.089
1.0086975 0 2.1230001
1.0279197 0 2.1420002
1.0439299 0 2.154
1.068864 0 2.184
1.0965544 0 2.2190001
1.1265736 0 2.2580001
1.1524309 0 2.2880001
1.1907765 0 2.342
1.2383604 0 2.4130001
1.2772969 0 2.4660001
1.3083744 0 2.503
1.3324192 0 2.526
1.3508284 0 2.5380001
1.363982 0 2.5400002
1.3782377 0 2.5440001
1.3919853 0 2.5470002
1.4085177 0 2.5550001
1.4195659 0 2.5530002
1.4333992 0 2.5560002
1.4449986 0 2.5550001
1.4560183 0 2.5530002
1.4664439 0 2.5500002
1.476261 0 2.546
1.4866247 0 2.5430002
1.4857621 0 2.5210001
1.4936018 0 2.5140002
1.5013748 0 2.5070002
1.5000267 0 2.4850001
1.5069869 0 2.4770002
1.5150969 0 2.4710002
1.5107918 0 2.4450002
1.5205605 0 2.4420002
1.5296732 0 2.4380002
1.5393801 0 2.4350002
1.5490584 0 2.4320002
1.5599916 0 2.4310002
1.5715618 0 2.4310002
1.5844343 0 2.4330001
1.5966698 0 2.434
1.6069329 0 2.4320002
1.6165112 0 2.4290001
1.6247205 0 2.424
1.626807 0 2.4100001
1.6409963 0 2.414
1.6476936 0 2.4070001
1.6543245 0 2.4000001
1.664359 0 2.398
1.6792661 0 2.4030001
1.6899995 0 2.4020002
1.6978898 0 2.3970001
1.7050195 0 2.391
1.7142457 0 2.388
1.7248886 0 2.3870001
1.7333398 0 2.3830001
1.7410207 0 2.378
1.750865 0 2.3760002
1.7621734 0 2.3760002
1.770496 0 2.3720002
1.7787806 0 2.368
1.7658612 0 2.3360002
1.7830645 0 2.3440001
1.7919242 0 2.3410001
1.8007554 0 2.3380001
1.8095579 0 2.335
1.8152131 0 2.3280001
1.8247242 0 2.3260002
1.8342159 0 2.3240001
1.8436887 0 2.322
1.8547401 0 2.322
1.8657913 0 2.322
1.8776512 0 2.3230002
1.8887074 0 2.3230002
1.9022168 0 2.3260002
1.9149323 0 2.3280001
1.930149 0 2.3330002
1.9412526 0 2.3330002
1.9431509 0 2.322
1.9533608 0 2.3210001
1.9694854 0 2.3270001
1.9746028 0 2.3200002
2.0001945 0 2.3370001
2.0104568 0 2.3360002
0 -0 0
0 -0 0
0 -0 0
0 -0 0
0 -0 0
0 -0 0
0 -0 0
0 -0 0
0 -0 0
0 -0 0
0 -0 0
0 -0 0
0 -0 0
0 -0 0
0 -0 0
0 -0 0
0 -0 0
0 -0 0
0 -0 0
0 -0 0
0 -0 0
0 -0 0
0 -0 0
0 -0 0
0 -0 0
0 -0 0
0 -0 0
-0 -0 0
-0 -0 0
-0 -0 0
-0 -0 0
-0 -0 0
-0 -0 0
-0 -0 0
-2.3441627 0 2.3660002
-2.3338881 0 2.3670001
-2.3206599 0 2.365
-2.3064747 0 2.3620002
-2.2826004 0 2.3490002
-2.2714205 0 2.3490002
-2.2602406 0 2.3490002
-2.2519331 0 2.352
-2.2636037 0 2.3760002
-2.2475555 0 2.3710001
-2.2457027 0 2.381
-2.2371857 0 2.3840001
-2.229574 0 2.388
-2.2274976 0 2.398
-2.2253261 0 2.4080002
-2.218462 0 2.4130001
-2.211551 0 2.4180002
-2.2018621 0 2.4200001
-2.1930597 0 2.4230001
-0 -0 0
-0 -0 0
-0 -0 0
-0 -0 0
-0 -0 0
-0 -0 0
-0 -0 0
-0 -0 0
-0 -0 0
-2.236378 0 2.608
-2.2478423 0 2.6360002
-2.2700639 0 2.677
-2.2910523 0 2.7170002
-2.3032751 0 2.7470002
-2.3335538 0 2.799
-2.3426139 0 2.8260002
-2.3613074 0 2.8650002
-2.3845458 0 2.9100001
-2.3926921 0 2.937
-2.4054408 0 2.97
-2.4049931 0 2.9870002
-2.4091856 0 3.0100002
-2.3972471 0 3.0130002
-2.4097965 0 3.0470002
-2.399225 0 3.052
-2.3886063 0 3.0570002
-2.3779395 0 3.062
-2.3749437 0 3.0770001
-2.3626006 0 3.0800002
-2.3502283 0 3.0830002
-2.3363125 0 3.0840001
-2.3216348 0 3.0840001
-2.3069565 0 3.0840001
-2.2915354 0 3.0830002
-2.2753851 0 3.0810001
-2.2614551 0 3.0820003
-2.2467866 0 3.0820003
-2.2321181 0 3.0820003
-2.2167299 0 3.0810001
-2.220649 0 3.1070001
-2.2051518 0 3.1060002
-2.1903689 0 3.1060002
-2.2015026 0 3.1430001
-2.1879354 0 3.1450002
-2.1688213 0 3.1390002
-2.1586847 0 3.1460001
-2.144393 0 3.1470001
-2.1327984 0 3.1520002
-2.1184685 0 3.1530001
-2.1114678 0 3.1650002
-2.1076646 0 3.1820002
-2.0971234 0 3.1890001
-2.0839043 0 3.1920002
-2.0706565 0 3.1950002
-2.0560935 0 3.1960001
-2.0408823 0 3.1960001
-2.033277 0 3.2080002
-2.0463164 0 3.2530003
-2.0320826 0 3.2550001
-2.0500457 0 3.3090003
-2.0336819 0 3.3080001
-2.0325785 0 3.3320003
-2.0167201 0 3.3320003
-2.0008616 0 3.3320003
-1.9850034 0 3.3320003
-1.9419599 0 3.2860003
-1.9304239 0 3.2930002
-1.8880041 0 3.2470002
-1.8719734 0 3.2460001
-1.8450854 0 3.2260001
-1.8302988 0 3.2270002
-1.8126905 0 3.223
-1.7962356 0 3.2210002
-1.7803526 0 3.2200003
-1.7831162 0 3.2530003
-1.7670903 0 3.2520001
-1.7688487 0 3.2840002
-1.7500157 0 3.2780001
-1.7391763 0 3.2870002
-1.7303486 0 3.3000002
-1.7162014 0 3.3030002
-1.7071738 0 3.3160002
-1.6944519 0 3.3220003
-1.6801572 0 3.325
-1.664332 0 3.325
-1.648507 0 3.325
-1.632682 0 3.325
-1.6173433 0 3.3260002
-1.616922 0 3.3580003
-1.6014165 0 3.3590002
-1.6005335 0 3.3910003
-1.5876651 0 3.3980002
-1.5724174 0 3.4000001
-1.5566932 0 3.4010003
-1.5414124 0 3.4030001
-1.5261124 0 3.4050002
-1.5107934 0 3.4070001
-1.4954556 0 3.4090002
-1.4792306 0 3.4090002
-1.4750224 0 3.4370003
-1.4573911 0 3.4340003
-1.444824 0 3.4430001
-1.4280225 0 3.4420002
-1.4251747 0 3.4750001
-1.4090409 0 3.4760001
-1.4113257 0 3.5230002
-1.3957459 0 3.5260003
-1.3801374 0 3.5290003
-1.3648868 0 3.5330002
-1.3492165 0 3.5360003
-1.3323871 0 3.5360003
-1.3163019 0 3.5380001
-1.2998304 0 3.5390003
-1.2829869 0 3.5390003
-1.2772342 0 3.5700002
-1.2602429 0 3.5700002
-1.2655399 0 3.6340001
-1.2492747 0 3.6370001
-1.2482238 0 3.6850002
-1.2310193 0 3.6860001
-1.2309244 0 3.7390001
-1.2199425 0 3.7600002
-1.2157938 0 3.8030002
-1.2043074 0 3.8240001
-1.1929313 0 3.8460002
-1.1883703 0 3.8910003
-1.1764659 0 3.9130001
-1.1646478 0 3.9360001
-1.152611 0 3.9590001
-1.1406416 0 3.9830003
-1.1281619 0 4.006
-1.1090958 0 4.006
-1.09656 0 4.0300002
-1.0840631 0 4.0550003
-1.0710655 0 4.079
-1.0580975 0 4.1040001
-1.0448914 0 4.1290002
-1.0379032 0 4.1800003
-1.0245845 0 4.2070003
-1.0107701 0 4.2330003
-0.9969421 0 4.2600002
-0.97666699 0 4.2600002
-0.95639187 0 4.2600002
-0.93611681 0 4.2600002
-0.9158417 0 4.2600002
-0.89556664 0 4.2600002
-0.87529153 0 4.2600002
-0.85501647 0 4.2600002
-0.84003192 0 4.2870002
-0.83014369 0 4.342
-0.8094784 0 4.342
-0.79408151 0 4.3710003
-0.77327806 0 4.3710003
-0.75247473 0 4.3710003
-0.73167133 0 4.3710003
-0.70615155 0 4.342
-0.6854862 0 4.342
-0.66053367 0 4.3140001
-0.64000154 0 4.3140001
-0.6194694 0 4.3140001
-0.59893733 0 4.3140001
-0.5784052 0 4.3140001
-0.55787313 0 4.3140001
-0.537341 0 4.3140001
-0.51680893 0 4.3140001
-0.4931708 0 4.2870002
-0.47276717 0 4.2870002
-0 -0 0
-0 -0 0
-0 -0 0
-0 -0 0
-0 -0 0
-0 -0 0
-0 -0 0
-0.13819839 0 1.914
-0.12888655 0 1.9110001
-0.11966594 0 1.909
-0.11046437 0 1.9070001
-0.10128184 0 1.9050001
-0.092215165 0 1.9050001
-0.083104841 0 1.904
-0.074081808 0 1.9050001
-0.065083385 0 1.9070001
-0.056095295 0 1.9100001
-0.04707865 0 1.9130001
-0.038053297 0 1.9170001
-0.028989868 0 1.9210001
-0.019909028 0 1.927
-0.010765503 0 1.932
-0.0015751969 0 1.9380001
0.0076722228 0 1.9440001
0.016976755 0 1.95
0.0263384 0 1.9560001
0.035757158 0 1.9620001
0.045279 0 1.9700001
0.054793756 0 1.9750001
0.06438861 0 1.9810001
0.073928796 0 1.9840001
0.083413489 0 1.9850001
0.09286093 0 1.9850001
0.10225681 0 1.9840001
0.11147429 0 1.9800001
0.12059262 0 1.9750001
0.12979501 0 1.9720001
0.13847478 0 1.9620001
0.14721005 0 1.9540001
0.15610945 0 1.9490001
0.16479154 0 1.9420002
0.17349663 0 1.9360001
0.18214458 0 1.9300001
0.19083458 0 1.9250001
0.19947697 0 1.9200001
0.20785446 0 1.9130001
0.21627875 0 1.9070001
0.22547312 0 1.9080001
0.2319725 0 1.8870001
0.23993199 0 1.8790001
0.24808024 0 1.8730001
0.25589693 0 1.8650001
0.26392141 0 1.8590001
0.27174205 0 1.8520001
0.27964753 0 1.8460001
0.28749591 0 1.84
0.29528722 0 1.8340001
0.30302134 0 1.8280001
0.31069842 0 1.8220001
0.31831837 0 1.8160001
0.32606122 0 1.8110001
0.33357167 0 1.8050001
0.342352 0 1.8060001
0.34880993 0 1.7950001
0.35635766 0 1.7900001
0.36141169 0 1.7730001
0.36588672 0 1.7540001
0.37444806 0 1.7550001
0.37974715 0 1.7410001
0.38825619 0 1.7420001
0.39540887 0 1.7370001
0.40251398 0 1.7320001
0.40814856 0 1.7210001
0.4151299 0 1.7160001
0.42181697 0 1.71
0.43221849 0 1.7190001
0.43604463 0 1.702
0.44597182 0 1.7090001
0.44453993 0 1.6730001
0.45060915 0 1.6660001
0.45661166 0 1.659
0.46282762 0 1.6530001
0.46927115 0 1.6480001
0.47624612 0 1.6450001
0.48348683 0 1.6430001
0.49130654 0 1.6430001
0.49943 0 1.6440001
0.50848871 0 1.6480001
0.51758546 0 1.6520001
0.52703828 0 1.6570001
0.53718448 0 1.664
0.55034548 0 1.6800001
0.5646559 0 1.6990001
0.57442766 0 1.7040001
0.58458889 0 1.71
0.59446055 0 1.715
0.61246175 0 1.743
0.63037324 0 1.7700001
0.63951916 0 1.7720001
0.66294503 0 1.8130001
0.66935128 0 1.807
0.6854552 0 1.8270001
0.69491053 0 1.8290001
0.70553899 0 1.8340001
0.72634095 0 1.8650001
0.73876524 0 1.8740001
0.75366902 0 1.8890001
0.76750439 0 1.9010001
0.78962392 0 1.9330001
0.8029564 0 1.9430001
0.81262201 0 1.9440001
0.82906145 0 1.9610001
0.8405323 0 1.9660001
0.85334772 0 1.9740001
0.86929858 0 1.9890001
0.88229954 0 1.9970001
0.89984238 0 2.0150001
0.91349459 0 2.0240002
0.92130315 0 2.02
0.94428194 0 2.049
0.9703303 0 2.0840001
0.98118967 0 2.0860002
1.0082225 0 2.1220002
1.0236007 0 2.1330001
1.0439299 0 2.154
1.0683746 0 2.1830001
1.0782703 0 2.1820002
1.1121048 0 2.2290001
1.1529346 0 2.289
1.1897596 0 2.3400002
1.2337415 0 2.404
1.2788508 0 2.4690001
1.3130789 0 2.5120001
1.3318918 0 2.5250001
1.3646667 0 2.5640001
1.3784809 0 2.5670002
1.3917817 0 2.569
1.4040086 0 2.569
1.4096204 0 2.5570002
1.4212341 0 2.5560002
1.4367639 0 2.562
1.4478265 0 2.5600002
1.4588698 0 2.5580001
1.4693192 0 2.5550001
1.4791602 0 2.5510001
1.4895476 0 2.5480001
1.4857621 0 2.5210001
1.4941959 0 2.5150001
1.5031714 0 2.5100002
1.5229647 0 2.523
1.5082035 0 2.4790001
1.5181625 0 2.4760001
1.5101737 0 2.444
1.5199379 0 2.4410002
1.5296732 0 2.4380002
1.5393801 0 2.4350002
1.5490584 0 2.4320002
1.5599916 0 2.4310002
1.5715618 0 2.4310002
1.586388 0 2.4360001
1.5973259 0 2.4350002
1.6075935 0 2.4330001
1.6171768 0 2.4300001
1.6253908 0 2.4250002
1.6234319 0 2.4050002
1.6375974 0 2.4090002
1.6476936 0 2.4070001
1.6412277 0 2.381
1.6601948 0 2.3920002
1.6743743 0 2.3960001
1.685778 0 2.3960001
1.6950566 0 2.3930001
1.7064457 0 2.3930001
1.7178351 0 2.3930001
1.7285018 0 2.3920002
1.7362492 0 2.3870001
1.7461458 0 2.3850002
1.7545494 0 2.381
1.7614316 0 2.375
1.770496 0 2.3720002
1.7532407 0 2.3340001
1.7651051 0 2.335
1.7807825 0 2.3410001
1.7903935 0 2.3390002
1.7992151 0 2.3360002
1.8080081 0 2.3330002
1.8159927 0 2.329
1.8231552 0 2.3240001
1.8326373 0 2.322
1.8421009 0 2.3200002
1.8523438 0 2.319
1.8633808 0 2.319
1.8744179 0 2.319
1.885455 0 2.319
1.8981277 0 2.3210001
1.9116421 0 2.3240001
1.9144297 0 2.3140001
1.9229466 0 2.3110001
1.9347825 0 2.312
1.9474696 0 2.3140001
1.9601755 0 2.3160002
1.9711983 0 2.3160002
1.9882123 0 2.3230002
2.0061533 0 2.3310001
2.0042667 0 2.3160002
0 -0 0
0 -0 0
0 -0 0
0 -0 0
0 -0 0
0 -0 0
0 -0 0
0 -0 0
0 -0 0
0 -0 0
0 -0 0
0 -0 0
0 -0 0
0 -0 0
0 -0 0
0 -0 0
0 -0 0
0 -0 0
0 -0 0
0 -0 0
0 -0 0
0 -0 0
0 -0 0
0 -0 0
0 -0 0
0 -0 0
-0 -0 0
-0 -0 0
-0 -0 0
-0 -0 0
-0 -0 0
-0 -0 0
-0 -0 0
-2.3461442 0 2.368
-2.3338881 0 2.3670001
-2.3196788 0 2.3640001
-2.3054979 0 2.3610001
-2.2923176 0 2.3590002
-2.2714205 0 2.3490002
-2.2612028 0 2.3500001
-2.2634225 0 2.3640001
-2.2540767 0 2.3660002
-2.2494514 0 2.3730001
-2.24193 0 2.3770001
-2.2343705 0 2.381
-2.226773 0 2.3850002
-2.2135642 0 2.3830001
-2.2234776 0 2.4060001
-2.2193813 0 2.414
-2.211551 0 2.4180002
-2.2027719 0 2.421
-2.1939647 0 2.424
-0 -0 0
-0 -0 0
-0 -0 0
-0 -0 0
-0 -0 0
-0 -0 0
-0 -0 0
-0 -0 0
-0 -0 0
-2.2380931 0 2.6100001
-2.2512534 0 2.6400001
-2.2853279 0 2.6950002
-2.2944252 0 2.7210002
-2.330106 0 2.779
-2.3360548 0 2.802
-2.3525612 0 2.8380001
-2.3654282 0 2.8700001
-2.3853655 0 2.9110003
-2.3992095 0 2.9450002
-2.4070609 0 2.9720001
-2.4057982 0 2.9880002
-2.4011819 0 3.0000002
-2.3972471 0 3.0130002
-2.4074237 0 3.0440001
-2.3968668 0 3.0490003
-2.3901691 0 3.0590003
-2.3779395 0 3.062
-2.374172 0 3.0760002
-2.3610663 0 3.0780001
-2.3494661 0 3.0820003
-2.3340399 0 3.0810001
-2.3193762 0 3.0810001
-2.3062086 0 3.0830002
-2.2915354 0 3.0830002
-2.2761238 0 3.0820003
-2.2607212 0 3.0810001
-2.2467866 0 3.0820003
-2.2321181 0 3.0820003
-2.240473 0 3.1140001
-2.2213638 0 3.108
-2.2307105 0 3.1420002
-2.2185771 0 3.1460001
-2.2043045 0 3.1470001
-2.1914136 0 3.1500001
-2.1854036 0 3.1630001
-2.1682911 0 3.1600001
-2.1675611 0 3.1810002
-2.1530979 0 3.1820002
-2.1399691 0 3.1850002
-2.1274791 0 3.1890001
-2.1149507 0 3.1930001
-2.0977809 0 3.1900001
-2.0852101 0 3.1940002
-2.0726008 0 3.1980002
-2.05738 0 3.1980002
-2.0689797 0 3.2400002
-2.0548267 0 3.2420001
-2.0544941 0 3.2660003
-2.0651703 0 3.3080001
-2.0506651 0 3.3100002
-2.0613468 0 3.3530002
-2.0472188 0 3.3560002
-2.033062 0 3.3590002
-2.0170751 0 3.3590002
-2.0004926 0 3.3580003
-1.9839193 0 3.3570001
-1.9433206 0 3.3150001
-1.9007961 0 3.2690001
-1.8927346 0 3.2820001
-1.8433696 0 3.223
-1.8291644 0 3.2250001
-1.8143778 0 3.2260001
-1.7967932 0 3.2220001
-1.7809055 0 3.2210002
-1.7831162 0 3.2530003
-1.7676338 0 3.2530003
-1.7839303 0 3.3120003
-1.7681673 0 3.3120003
-1.7497585 0 3.3070002
-1.7497494 0 3.3370001
-1.725554 0 3.3210001
-1.7082034 0 3.3180001
-1.7000628 0 3.3330002
-1.6841997 0 3.3330002
-1.6688371 0 3.3340001
-1.6529692 0 3.3340001
-1.6375923 0 3.3350003
-1.6168569 0 3.325
-1.6005504 0 3.3240001
-1.6023699 0 3.3610001
-1.5882617 0 3.3650002
-1.573648 0 3.3680003
-1.5580807 0 3.3690002
-1.5429616 0 3.3710001
-1.5278237 0 3.3730001
-1.5131147 0 3.3760002
-1.4974904 0 3.3770001
-1.4818566 0 3.3780003
-1.4783628 0 3.4070001
-1.4600018 0 3.4020002
-1.4442347 0 3.4030001
-1.428458 0 3.404
-1.4126719 0 3.4050002
-1.4100002 0 3.4380002
-1.3936372 0 3.4380002
-1.4021119 0 3.5000002
-1.385058 0 3.4990001
-1.3805285 0 3.5300002
-1.365273 0 3.5340002
-1.3495981 0 3.5370002
-1.3459522 0 3.5720003
-1.3289516 0 3.5720003
-1.3101144 0 3.5670002
-1.2916875 0 3.5630002
-1.2768764 0 3.5690002
-1.2729514 0 3.6060002
-1.2561371 0 3.6070001
-1.2509922 0 3.6420002
-1.2363682 0 3.6500001
-1.2189963 0 3.6500001
-1.2016245 0 3.6500001
-1.1956085 0 3.6850002
-1.1783898 0 3.6860001
-1.1734439 0 3.7260001
-1.1560205 0 3.7270002
-1.148361 0 3.7600002
-1.1433938 0 3.8030002
-1.1380172 0 3.8460002
-1.1261176 0 3.8680003
-1.1142949 0 3.8910003
-1.1019715 0 3.9130001
-1.0897157 0 3.9360001
-1.0837715 0 3.9830003
-1.0648146 0 3.9830003
-1.0518972 0 4.006
-1.0454643 0 4.0550003
-1.0322382 0 4.079
-1.0190322 0 4.1040001
-1.0119203 0 4.1550002
-0.99811453 0 4.1800003
-0.98453885 0 4.2070003
-0.97047687 0 4.2330003
-0.95033026 0 4.2330003
-0.93611681 0 4.2600002
-0.9158417 0 4.2600002
-0.89556664 0 4.2600002
-0.87529153 0 4.2600002
-0.86043555 0 4.2870002
-0.84003192 0 4.2870002
-0.83014369 0 4.342
-0.8094784 0 4.342
-0.79408151 0 4.3710003
-0.77327806 0 4.3710003
-0.75247473 0 4.3710003
-0.73167133 0 4.3710003
-0.70615155 0 4.342
-0.6854862 0 4.342
-0.66482085 0 4.342
-0.64000154 0 4.3140001
-0.6194694 0 4.3140001
-0.59893733 0 4.3140001
-0.58215934 0 4.342
-0.55787313 0 4.3140001
-0.537341 0 4.3140001
-0.51680893 0 4.3140001
-0.4931708 0 4.2870002
-0.46978965 0 4.2600002
-0 -0 0
-0 -0 0
-0 -0 0
-0 -0 0
-0 -0 0
-0 -0 0
-0 -0 0
-0.1384872 0 1.9180001
-0.12915634 0 1.9150001
-0.11985399 0 1.9120001
-0.11058022 0 1.909
-0.10138817 0 1.9070001
-0.092263579 0 1.9060001
-0.083148487 0 1.9050001
-0.074120693 0 1.9060001
-0.065117516 0 1.9080001
-0.056095295 0 1.9100001
-0.04707865 0 1.9130001
-0.038053297 0 1.9170001
-0.028989868 0 1.9210001
-0.019909028 0 1.927
-0.010765503 0 1.932
-0.0015751969 0 1.9380001
0.0076722228 0 1.9440001
0.016976755 0 1.95
0.026324933 0 1.955
0.035757158 0 1.9620001
0.045301985 0 1.9710001
0.054904733 0 1.9790001
0.064453617 0 1.983
0.073966056 0 1.9850001
0.08345551 0 1.9860001
0.092907704 0 1.9860001
0.10225681 0 1.9840001
0.11158688 0 1.9820001
0.12071475 0 1.9770001
0.12979501 0 1.9720001
0.13840419 0 1.9610001
0.14713471 0 1.9530001
0.15602934 0 1.9480001
0.16479154 0 1.9420002
0.173407 0 1.9350001
0.18214458 0 1.9300001
0.19073546 0 1.9240001
0.19926919 0 1.9180001
0.20774582 0 1.9120001
0.21605194 0 1.9050001
0.22511861 0 1.9050001
0.23172665 0 1.8850001
0.2398043 0 1.8780001
0.24781533 0 1.8710001
0.25575969 0 1.8640001
0.26377943 0 1.858
0.27174205 0 1.8520001
0.27949604 0 1.845
0.28733969 0 1.8390001
0.2951262 0 1.8330001
0.30285558 0 1.8270001
0.31052789 0 1.8210001
0.31831837 0 1.8160001
0.32606122 0 1.8110001
0.33357167 0 1.8050001
0.342352 0 1.8060001
0.347644 0 1.789
0.3569549 0 1.7930001
0.36080018 0 1.7700001
0.36734691 0 1.761
0.37444806 0 1.7550001
0.37952906 0 1.7400001
0.3880333 0 1.7410001
0.39358777 0 1.7290001
0.40065479 0 1.7240001
0.40791139 0 1.72
0.4151299 0 1.7160001
0.42477712 0 1.7220001
0.43196705 0 1.7180001
0.43886277 0 1.7130001
0.44623277 0 1.71
0.44480562 0 1.674
0.45060915 0 1.6660001
0.45661166 0 1.659
0.46282762 0 1.6530001
0.46927115 0 1.6480001
0.47624612 0 1.6450001
0.48348683 0 1.6430001
0.49100748 0 1.6420001
0.49912623 0 1.6430001
0.50818014 0 1.6470001
0.51695883 0 1.6500001
0.52640218 0 1.6550001
0.53653878 0 1.6620001
0.55132824 0 1.6830001
0.56266177 0 1.6930001
0.57476479 0 1.705
0.58493072 0 1.7110001
0.60104644 0 1.7340001
0.61175895 0 1.7410001
0.62538725 0 1.756
0.6384365 0 1.7690001
0.66221374 0 1.8110001
0.66749918 0 1.802
0.68507999 0 1.8260001
0.69491053 0 1.8290001
0.70476955 0 1.8320001
0.72595149 0 1.8640001
0.7371884 0 1.8700001
0.75327003 0 1.8880001
0.76185203 0 1.8870001
0.78553897 0 1.9230001
0.8033697 0 1.9440001
0.81972826 0 1.9610001
0.82863867 0 1.96
0.84010482 0 1.9650002
0.86112899 0 1.9920001
0.8723579 0 1.9960001
0.88318312 0 1.9990001
0.89894921 0 2.013
0.9130432 0 2.023
0.92130315 0 2.02
0.94382107 0 2.0480001
0.96893346 0 2.0810001
0.98024887 0 2.0840001
1.0067971 0 2.1190002
1.0188018 0 2.1230001
1.0439299 0 2.154
1.068864 0 2.184
1.0797528 0 2.1850002
1.1001306 0 2.2050002
1.1524309 0 2.2880001
0 -0 0
1.2506772 0 2.437
1.2959436 0 2.5020001
1.3292834 0 2.5430002
1.3503536 0 2.5600002
1.3657312 0 2.5660002
1.3795549 0 2.569
1.393407 0 2.572
1.4056482 0 2.572
1.4107229 0 2.559
1.4223461 0 2.5580001
1.4345207 0 2.5580001
1.4472609 0 2.559
1.4588698 0 2.5580001
1.4710444 0 2.5580001
1.4820595 0 2.5560002
1.4930552 0 2.5540001
1.5016747 0 2.5480001
1.5126133 0 2.546
1.5265273 0 2.549
1.5265865 0 2.529
1.5088118 0 2.48
1.5212283 0 2.4810002
1.5330365 0 2.4810002
1.542354 0 2.4770002
1.5516331 0 2.473
1.5577136 0 2.4640002
1.566893 0 2.46
1.5766759 0 2.457
1.5864305 0 2.4540002
1.5889928 0 2.4400001
1.5992938 0 2.4380002
1.6089151 0 2.4350002
1.6185079 0 2.4320002
1.6267312 0 2.427
1.6220819 0 2.4030001
1.6362379 0 2.4070001
1.6463246 0 2.4050002
1.6405385 0 2.3800001
1.6588066 0 2.3900001
1.6708802 0 2.391
1.6829637 0 2.3920002
1.6943482 0 2.3920002
1.7043064 0 2.3900001
1.7156814 0 2.3900001
1.7176625 0 2.3770001
1.7340671 0 2.3840001
1.7439494 0 2.3820002
1.7376008 0 2.358
1.7592068 0 2.3720002
1.7428786 0 2.335
1.7532407 0 2.3340001
1.7688849 0 2.3400002
1.7785003 0 2.3380001
1.788097 0 2.3360002
1.7969044 0 2.3330002
1.806458 0 2.3310001
1.8144335 0 2.3270001
1.8223706 0 2.3230002
1.8318481 0 2.3210001
1.8405128 0 2.3180001
1.8507464 0 2.3170002
1.8609704 0 2.3160002
1.8719932 0 2.3160002
1.883016 0 2.3160002
1.8948565 0 2.3170002
1.8976585 0 2.3070002
1.9144297 0 2.3140001
1.9229466 0 2.3110001
1.9356195 0 2.3130002
1.946628 0 2.3130002
1.9576365 0 2.3130002
1.9703472 0 2.3150001
1.9762299 0 2.309
1.9984076 0 2.322
2.0068629 0 2.319
0 -0 0
0 -0 0
0 -0 0
0 -0 0
0 -0 0
0 -0 0
0 -0 0
0 -0 0
0 -0 0
0 -0 0
0 -0 0
0 -0 0
0 -0 0
0 -0 0
0 -0 0
0 -0 0
0 -0 0
0 -0 0
0 -0 0
0 -0 0
0 -0 0
0 -0 0
0 -0 0
0 -0 0
0 -0 0
0 -0 0
-0 -0 0
-0 -0 0
-0 -0 0
-0 -0 0
-0 -0 0
-0 -0 0
-0 -0 0
-2.3600152 0 2.3820002
-2.3614964 0 2.3950002
-2.3196788 0 2.3640001
-2.3054979 0 2.3610001
-2.2923176 0 2.3590002
-2.2714205 0 2.3490002
-2.2621648 0 2.3510001
-2.26438 0 2.365
-2.2540767 0 2.3660002
-2.2485034 0 2.3720002
-2.2400436 0 2.375
-2.225925 0 2.3720002
-2.2174363 0 2.375
-2.2172797 0 2.3870001
-2.2280982 0 2.411
-2.2203009 0 2.4150002
-2.2133801 0 2.4200001
-2.2018621 0 2.4200001
-2.1912494 0 2.421
-0 -0 0
-0 -0 0
-0 -0 0
-0 -0 0
-0 -0 0
-0 -0 0
-0 -0 0
-0 -0 0
-0 -0 0
-2.2398081 0 2.6120002
-2.2546642 0 2.6440001
-2.2895677 0 2.7
-2.2961116 0 2.723
-2.3275905 0 2.776
-2.3402236 0 2.8070002
-2.3542192 0 2.8400002
-2.3670766 0 2.8720002
-2.3861847 0 2.9120002
-2.3992095 0 2.9450002
-2.4094906 0 2.9750001
-2.4066033 0 2.9890001
-2.4019821 0 3.0010002
-2.3980424 0 3.0140002
-2.4034693 0 3.039
-2.3929362 0 3.0440001
-2.3886063 0 3.0570002
-2.3779395 0 3.062
-2.3664536 0 3.0660002
-2.3602993 0 3.0770001
-2.3487036 0 3.0810001
-2.3294945 0 3.075
-2.316365 0 3.0770001
-2.3024683 0 3.0780001
-2.2885623 0 3.0790002
-2.2753851 0 3.0810001
-2.2614551 0 3.0820003
-2.2671986 0 3.1100001
-2.2567425 0 3.1160002
-2.2411926 0 3.1150002
-2.2449496 0 3.141
-2.2314205 0 3.1430001
-2.2192824 0 3.1470001
-2.2064056 0 3.1500001
-2.1941965 0 3.154
-2.1867855 0 3.1650002
-2.1765251 0 3.1720002
-2.1689239 0 3.1830001
-2.1537745 0 3.1830001
-2.140641 0 3.1860001
-2.1281459 0 3.1900001
-2.1149507 0 3.1930001
-2.0990961 0 3.1920002
-2.0865157 0 3.1960001
-2.0732489 0 3.1990001
-2.0831134 0 3.2380002
-2.0734499 0 3.2470002
-2.0776441 0 3.2780001
-2.0595264 0 3.2740002
-2.0657947 0 3.3090003
-2.0512848 0 3.3110001
-2.0607321 0 3.3520002
-2.0466087 0 3.3550003
-2.0324566 0 3.3580003
-2.0164745 0 3.3580003
-1.9998968 0 3.3570001
-1.9833283 0 3.3560002
-1.9427345 0 3.3140001
-1.9269619 0 3.3140001
-1.8904278 0 3.2780001
-1.87883 0 3.2850001
-1.8308659 0 3.2280002
-1.8166275 0 3.2300003
-1.8079464 0 3.2420001
-1.794728 0 3.2460001
-1.782568 0 3.2520001
-1.7986068 0 3.3100002
-1.7806985 0 3.3060002
-1.7900558 0 3.3530002
-1.7714518 0 3.348
-1.7539443 0 3.3450003
-1.7395828 0 3.348
-1.7226187 0 3.3460002
-1.7061836 0 3.3450003
-1.684705 0 3.3340001
-1.6683365 0 3.3330002
-1.6529692 0 3.3340001
-1.6375923 0 3.3350003
-1.6168569 0 3.325
-1.6183664 0 3.3610001
-1.6033235 0 3.3630002
-1.5887337 0 3.3660002
-1.5741152 0 3.3690002
-1.5585431 0 3.3700001
-1.5429616 0 3.3710001
-1.5273707 0 3.3720002
-1.5126665 0 3.3750002
-1.4970469 0 3.3760002
-1.4814179 0 3.3770001
-1.4657792 0 3.3780003
-1.4492728 0 3.3770001
-1.4315027 0 3.3730001
-1.4158688 0 3.3740001
-1.3998106 0 3.3740001
-1.3964661 0 3.4050002
-1.381071 0 3.4070001
-1.3852865 0 3.4580002
-1.3688284 0 3.4580002
-1.369187 0 3.5010002
-1.3656594 0 3.5350001
-1.3499795 0 3.5380001
-1.3470826 0 3.5750003
-1.3304398 0 3.5760002
-1.3310498 0 3.6240001
-1.3141643 0 3.6250002
-1.2997736 0 3.6330001
-1.2803645 0 3.6270001
-1.2735497 0 3.6570001
-1.2527096 0 3.6470001
-1.2373843 0 3.6530001
-1.2193303 0 3.6510003
-1.191419 0 3.6190002
-1.1751679 0 3.6220002
-1.1585687 0 3.6240001
-1.1419506 0 3.6260002
-1.1367897 0 3.6650002
-1.1196519 0 3.6660001
-1.1181387 0 3.7190001
-1.1125702 0 3.7600002
-1.1007886 0 3.7810001
-1.0951076 0 3.8240001
-1.0831031 0 3.8460002
-1.0708894 0 3.8680003
-1.0587382 0 3.8910003
-1.0461007 0 3.9130001
-1.0335165 0 3.9360001
-1.0269012 0 3.9830003
-1.0137647 0 4.006
-1.0006579 0 4.0300002
-0.993411 0 4.079
-0.97996694 0 4.1040001
-0.97236961 0 4.1550002
-0.95259422 0 4.1550002
-0.9384315 0 4.1800003
-0.92447031 0 4.2070003
-0.9100371 0 4.2330003
-0.88989049 0 4.2330003
-0.87529153 0 4.2600002
-0.86043555 0 4.2870002
-0.84532255 0 4.3140001
-0.83014369 0 4.342
-0.8094784 0 4.342
-0.79408151 0 4.3710003
-0.77327806 0 4.3710003
-0.75247473 0 4.3710003
-0.72681689 0 4.342
-0.70615155 0 4.342
-0.6854862 0 4.342
-0.66482085 0 4.342
-0.64415544 0 4.342
-0.62349004 0 4.342
-0.60282475 0 4.342
-0.58215934 0 4.342
-0.56149399 0 4.342
-0.537341 0 4.3140001
-0.51680893 0 4.3140001
-0.49006477 0 4.2600002
-0.46978965 0 4.2600002
-0 -0 0
-0 -0 0
-0 -0 0
-0 -0 0
-0 -0 0
-0 -0 0
-0 -0 0
-0.13870382 0 1.9210001
-0.12935866 0 1.9180001
-0.12004205 0 1.9150001
-0.110754 0 1.9120001
-0.10144134 0 1.9080001
-0.092311978 0 1.9070001
-0.08319214 0 1.9060001
-0.074159585 0 1.9070001
-0.065083385 0 1.9070001
-0.056095295 0 1.9100001
-0.04707865 0 1.9130001
-0.038053297 0 1.9170001
-0.029004959 0 1.9220001
-0.019909028 0 1.927
-0.010765503 0 1.932
-0.0015743839 0 1.937
0.0076682759 0 1.9430001
0.016976755 0 1.95
0.0263384 0 1.9560001
0.035684258 0 1.9580001
0.045347951 0 1.973
0.054960217 0 1.9810001
0.064518623 0 1.9850001
0.074115105 0 1.9890001
0.083581582 0 1.9890001
0.093048051 0 1.9890001
0.10241143 0 1.9870001
0.11119279 0 1.9750001
0.12034839 0 1.9710001
0.12940009 0 1.9660001
0.13833362 0 1.96
0.14721005 0 1.9540001
0.15594925 0 1.9470001
0.16470668 0 1.9410001
0.173407 0 1.9350001
0.18205021 0 1.9290001
0.19073546 0 1.9240001
0.1991653 0 1.9170001
0.2075285 0 1.9100001
0.21571168 0 1.9020001
0.22488226 0 1.9030001
0.23148078 0 1.8830001
0.23967661 0 1.8770001
0.24768288 0 1.8700001
0.25562248 0 1.863
0.26363745 0 1.8570001
0.27159533 0 1.8510001
0.27949604 0 1.845
0.28718343 0 1.8380001
0.29496521 0 1.8320001
0.30268982 0 1.8260001
0.31052789 0 1.8210001
0.31814307 0 1.8150001
0.32588118 0 1.8100001
0.3333869 0 1.8040001
0.34102505 0 1.7990001
0.34939292 0 1.7980001
0.3569549 0 1.7930001
0.36039248 0 1.7680001
0.36734691 0 1.761
0.37444806 0 1.7550001
0.37952906 0 1.7400001
0.38625026 0 1.733
0.39358777 0 1.7290001
0.40065479 0 1.7240001
0.40767425 0 1.7190001
0.41464606 0 1.7140001
0.42453045 0 1.7210001
0.43171564 0 1.7170001
0.43860659 0 1.7120001
0.44597182 0 1.7090001
0.44560277 0 1.677
0.45060915 0 1.6660001
0.45661166 0 1.659
0.46282762 0 1.6530001
0.46927115 0 1.6480001
0.47595659 0 1.6440001
0.48348683 0 1.6430001
0.49070844 0 1.641
0.49912623 0 1.6430001
0.50756305 0 1.6450001
0.51664549 0 1.649
0.52544796 0 1.6520001
0.53589314 0 1.6600001
0.55165589 0 1.6840001
0.56266177 0 1.6930001
0.57779872 0 1.7140001
0.5910843 0 1.7290001
0.6013931 0 1.7350001
0.61140758 0 1.7400001
0.62503111 0 1.7550001
0.63988012 0 1.7730001
0.6567288 0 1.7960001
0.66379499 0 1.7920001
0.68432963 0 1.8240001
0.68997133 0 1.8160001
0.70476955 0 1.8320001
0.72517258 0 1.8620001
0.7356115 0 1.8660001
0.75287104 0 1.8870001
0.76104456 0 1.8850001
0.7843135 0 1.9200001
0.80460948 0 1.9470001
0.81972826 0 1.9610001
0.82737041 0 1.9570001
0.83924973 0 1.9630001
0.86026442 0 1.9900001
0.8723579 0 1.9960001
0.88362491 0 2
0.89850265 0 2.0120001
0.9112379 0 2.0190001
0.92175937 0 2.0210001
0.94428194 0 2.049
0.95636201 0 2.0540001
0.97977853 0 2.0830002
1.0058467 0 2.1170001
1.0183219 0 2.1220002
1.0473225 0 2.161
1.0536925 0 2.1530001
1.0792586 0 2.184
1.1006294 0 2.2060001
1.1322836 0 2.2480001
1.1862005 0 2.3330002
1.2537565 0 2.4430001
1.3088927 0 2.5270002
1.3266697 0 2.5380001
1.352991 0 2.5650001
1.3678602 0 2.5700002
1.3817029 0 2.5730002
1.3950323 0 2.575
1.4078344 0 2.5760002
1.4195433 0 2.575
1.4306867 0 2.5730002
1.4356424 0 2.5600002
1.4478265 0 2.5600002
1.4594401 0 2.559
1.4716195 0 2.559
1.4820595 0 2.5560002
1.4930552 0 2.5540001
1.5016747 0 2.5480001
1.5120193 0 2.5450001
1.5259285 0 2.5480001
1.5277938 0 2.5310001
1.5349727 0 2.523
1.5236809 0 2.4850001
1.5342722 0 2.483
1.5435992 0 2.4790001
1.5597898 0 2.4860001
1.5785758 0 2.4970002
1.5860014 0 2.49
1.5946437 0 2.4850001
1.6058246 0 2.4840002
1.6163445 0 2.4820001
1.6261892 0 2.4790001
1.6089151 0 2.4350002
1.6185079 0 2.4320002
1.6274016 0 2.4280002
1.6220819 0 2.4030001
1.6382772 0 2.4100001
1.6463246 0 2.4050002
1.6391598 0 2.378
1.6581125 0 2.3890002
1.6694827 0 2.3890002
1.6808529 0 2.3890002
1.6922232 0 2.3890002
1.7021672 0 2.3870001
1.7135278 0 2.3870001
1.714772 0 2.3730001
1.7333398 0 2.3830001
1.7432171 0 2.381
1.736127 0 2.3560002
1.7414069 0 2.348
1.74885 0 2.3430002
1.7584989 0 2.3410001
1.7673728 0 2.3380001
1.7769791 0 2.3360002
1.7858007 0 2.3330002
1.7945938 0 2.3300002
1.8041331 0 2.3280001
1.8128738 0 2.325
1.8208016 0 2.3210001
1.8294804 0 2.3180001
1.8389248 0 2.3160002
1.84835 0 2.3140001
1.8585597 0 2.3130002
1.8679516 0 2.3110001
1.8781377 0 2.3100002
1.8891319 0 2.3100002
1.8943683 0 2.3030002
1.9094657 0 2.3080001
1.9187862 0 2.306
1.9297614 0 2.306
1.9306375 0 2.2940001
1.9525583 0 2.3070002
1.9524736 0 2.2940001
1.967671 0 2.299
0 -0 0
2.0034013 0 2.3150001
0 -0 0
0 -0 0
0 -0 0
0 -0 0
0 -0 0
0 -0 0
0 -0 0
0 -0 0
0 -0 0
0 -0 0
0 -0 0
0 -0 0
0 -0 0
0 -0 0
0 -0 0
0 -0 0
0 -0 0
0 -0 0
0 -0 0
0 -0 0
0 -0 0
0 -0 0
0 -0 0
0 -0 0
0 -0 0
0 -0 0
-0 -0 0
-0 -0 0
-0 -0 0
-0 -0 0
-0 -0 0
-0 -0 0
-0 -0 0
-2.3788395 0 2.401
-2.3674123 0 2.401
-2.3530412 0 2.398
-2.3367457 0 2.3930001
-2.3204978 0 2.388
-2.3004296 0 2.3790002
-2.2862203 0 2.3760002
-2.2672522 0 2.368
-2.2559819 0 2.368
-2.2494514 0 2.3730001
-2.2400436 0 2.375
-2.225925 0 2.3720002
-2.2174363 0 2.375
-2.2172797 0 2.3870001
-2.2280982 0 2.411
-2.2203009 0 2.4150002
-2.2124655 0 2.4190001
-2.2036819 0 2.4220002
-2.1903443 0 2.4200001
-0 -0 0
-0 -0 0
-0 -0 0
-0 -0 0
-0 -0 0
-0 -0 0
-0 -0 0
-0 -0 0
-0 -0 0
-2.2406657 0 2.6130002
-2.2563698 0 2.6460001
-2.2861757 0 2.6960001
-2.3222518 0 2.7540002
-2.3342984 0 2.7840002
-2.3418908 0 2.809
-2.3550479 0 2.8410001
-2.3687248 0 2.8740001
-2.3870041 0 2.9130001
-2.3992095 0 2.9450002
-2.4103005 0 2.9760001
-2.3985517 0 2.9790001
-2.411587 0 3.0130002
-2.4004295 0 3.0170002
-2.3995152 0 3.0340002
-2.3882194 0 3.0380001
-2.365947 0 3.0280001
-2.356195 0 3.0340002
-2.3440704 0 3.0370002
-2.3549297 0 3.0700002
-2.3487036 0 3.0810001
-2.3294945 0 3.075
-2.316365 0 3.0770001
-2.3032165 0 3.0790002
-2.2900486 0 3.0810001
-2.2768621 0 3.0830002
-2.2636561 0 3.085
-2.2671986 0 3.1100001
-2.2596393 0 3.1200001
-2.2447898 0 3.1200001
-2.244235 0 3.1400001
-2.2314205 0 3.1430001
-2.2192824 0 3.1470001
-2.2064056 0 3.1500001
-2.1941965 0 3.154
-2.1867855 0 3.1650002
-2.1772113 0 3.1730001
-2.1716495 0 3.187
-2.1537745 0 3.1830001
-2.140641 0 3.1860001
-2.1281459 0 3.1900001
-2.1149507 0 3.1930001
-2.1254005 0 3.2320001
-2.1119769 0 3.2350001
-2.0907474 0 3.2260001
-2.0927634 0 3.2530003
-2.0798354 0 3.2570002
-2.0751088 0 3.2740002
-2.077769 0 3.3030002
-2.0664189 0 3.3100002
-2.0525239 0 3.3130002
-2.0410593 0 3.3200002
-2.0264783 0 3.3220003
-2.0318513 0 3.3570001
-2.0158739 0 3.3570001
-1.9993011 0 3.3560002
-1.9821464 0 3.3540001
-1.9591486 0 3.3420002
-1.9263804 0 3.3130002
-1.8956182 0 3.2870002
-1.879974 0 3.2870002
-1.8529861 0 3.2670002
-1.8379996 0 3.2680001
-1.8263494 0 3.2750001
-1.8118681 0 3.2770002
-1.816553 0 3.3140001
-1.7996936 0 3.3120003
-1.8060139 0 3.3530002
-1.788988 0 3.3510001
-1.7915579 0 3.3860002
-1.7764912 0 3.3880002
-1.7593273 0 3.3860002
-1.7421821 0 3.3840001
-1.7219957 0 3.3760002
-1.7034014 0 3.3710001
-1.6853552 0 3.3670001
-1.667843 0 3.3640001
-1.6523234 0 3.3650002
-1.6401981 0 3.3730001
-1.6193295 0 3.3630002
-1.6047537 0 3.3660002
-1.5896777 0 3.3680003
-1.5745825 0 3.3700001
-1.5590056 0 3.3710001
-1.5429616 0 3.3710001
-1.5273707 0 3.3720002
-1.5122182 0 3.3740001
-1.4966035 0 3.3750002
-1.4809792 0 3.3760002
-1.466647 0 3.3800001
-1.4501311 0 3.3790002
-1.4310783 0 3.3720002
-1.4154491 0 3.3730001
-1.3998106 0 3.3740001
-1.3833421 0 3.3730001
-1.3806655 0 3.4060001
-1.3648556 0 3.4070001
-1.3688284 0 3.4580002
-1.3687959 0 3.5000002
-1.365273 0 3.5340002
-1.3618082 0 3.5690002
-1.3467057 0 3.5740001
-1.34867 0 3.6250002
-1.3310498 0 3.6240001
-1.3257651 0 3.6570001
-1.3169465 0 3.6810002
-1.3018981 0 3.6880002
-1.2846936 0 3.6890001
-1.2667928 0 3.6880002
-1.2384006 0 3.6560001
-1.2079753 0 3.6170001
-1.1910897 0 3.6180003
-1.1592698 0 3.5730002
-1.1413053 0 3.5700002
-1.1221098 0 3.5630002
-1.1181792 0 3.6050003
-1.1016324 0 3.6070001
-1.0997987 0 3.6580002
-1.0927451 0 3.6930001
-1.0885608 0 3.7390001
-1.0827934 0 3.7810001
-1.0709935 0 3.8030002
-1.0587076 0 3.8240001
-1.0464938 0 3.8460002
-1.0340705 0 3.8680003
-1.0217005 0 3.8910003
-1.0031817 0 3.8910003
-0.99605048 0 3.9360001
-0.98302841 0 3.9590001
-0.97563237 0 4.006
-0.96229696 0 4.0300002
-0.94896722 0 4.0550003
-0.93517005 0 4.079
-0.92136908 0 4.1040001
-0.90733016 0 4.1290002
-0.89326817 0 4.1550002
-0.88442457 0 4.2070003
-0.86440176 0 4.2070003
-0.85501647 0 4.2600002
-0.84003192 0 4.2870002
-0.8196283 0 4.2870002
-0.79922479 0 4.2870002
-0.78372627 0 4.3140001
-0.76319414 0 4.3140001
-0.74266207 0 4.3140001
-0.72212994 0 4.3140001
-0.70159781 0 4.3140001
-0.6810658 0 4.3140001
-0.66053367 0 4.3140001
-0.64415544 0 4.342
-0.62349004 0 4.342
-0.60282475 0 4.342
-0.58215934 0 4.342
-0.56149399 0 4.342
-0.54082859 0 4.342
-0.51357436 0 4.2870002
-0.49006477 0 4.2600002
-0.46978965 0 4.2600002
-0 -0 0
-0 -0 0
-0 -0 0
-0 -0 0
-0 -0 0
-0 -0 0
-0 -0 0
-0.13899264 0 1.9250001
-0.12962843 0 1.9220001
-0.1202301 0 1.9180001
-0.11081193 0 1.9130001
-0.10154767 0 1.9100001
-0.092311978 0 1.9070001
-0.083235778 0 1.9070001
-0.074120693 0 1.9060001
-0.065083385 0 1.9070001
-0.056065924 0 1.909
-0.047054041 0 1.9120001
-0.038033444 0 1.9160001
-0.028989868 0 1.9210001
-0.019909028 0 1.927
-0.010765503 0 1.932
-0.0015751969 0 1.9380001
0.0076722228 0 1.9440001
0.016941931 0 1.9460001
0.026298003 0 1.9530001
0.035684258 0 1.9580001
0.045462873 0 1.978
0.055043448 0 1.9840001
0.064616129 0 1.988
0.074189633 0 1.9910001
0.083707646 0 1.9920001
0.09286093 0 1.9850001
0.10215373 0 1.9820001
0.11130539 0 1.9770001
0.1204705 0 1.973
0.12946591 0 1.9670001
0.1380513 0 1.9560001
0.14698404 0 1.9510001
0.15586916 0 1.9460001
0.16470668 0 1.9410001
0.17358623 0 1.937
0.18214458 0 1.9300001
0.19073546 0 1.9240001
0.1991653 0 1.9170001
0.20720254 0 1.9070001
0.21525805 0 1.8980001
0.22370054 0 1.8930001
0.23123491 0 1.881
0.23942123 0 1.8750001
0.24755043 0 1.8690001
0.25548527 0 1.8620001
0.26349548 0 1.8560001
0.27159533 0 1.8510001
0.27949604 0 1.845
0.28718343 0 1.8380001
0.29496521 0 1.8320001
0.30268982 0 1.8260001
0.31035736 0 1.8200001
0.3179678 0 1.8140001
0.32570115 0 1.8090001
0.33301726 0 1.802
0.34045637 0 1.7960001
0.34900427 0 1.7960001
0.35436684 0 1.7800001
0.35896558 0 1.761
0.36755553 0 1.7620001
0.37444806 0 1.7550001
0.37952906 0 1.7400001
0.38625026 0 1.733
0.39358777 0 1.7290001
0.40065479 0 1.7240001
0.40767425 0 1.7190001
0.41464606 0 1.7140001
0.42428374 0 1.72
0.43121275 0 1.715
0.4380942 0 1.71
0.44518897 0 1.7060001
0.45065135 0 1.6960001
0.45033866 0 1.6650001
0.45661166 0 1.659
0.46282762 0 1.6530001
0.46927115 0 1.6480001
0.47595659 0 1.6440001
0.48289827 0 1.641
0.49070844 0 1.641
0.49882242 0 1.6420001
0.50725448 0 1.6440001
0.51633221 0 1.6480001
0.52512985 0 1.651
0.53589314 0 1.6600001
0.55132824 0 1.6830001
0.56199712 0 1.6910001
0.57847291 0 1.7160001
0.59142619 0 1.7300001
0.6013931 0 1.7350001
0.61175895 0 1.7410001
0.62467498 0 1.7540001
0.63988012 0 1.7730001
0.65124387 0 1.7810001
0.66527671 0 1.7960001
0.6794523 0 1.8110001
0.68959135 0 1.8150001
0.71015537 0 1.8460001
0.72400415 0 1.8590001
0.73442882 0 1.863
0.75446695 0 1.891
0.75942963 0 1.881
0.7826795 0 1.9160001
0.78890568 0 1.909
0.81972826 0 1.9610001
0.82694757 0 1.9560001
0.83753961 0 1.9590001
0.85983211 0 1.9890001
0.87192088 0 1.9950001
0.88318312 0 1.9990001
0.89894921 0 2.013
0.9130432 0 2.023
0.9222154 0 2.0220001
0.94566447 0 2.052
0.95682758 0 2.0550001
0.97977853 0 2.0830002
1.0063219 0 2.118
1.0173621 0 2.1200001
1.0473225 0 2.161
1.0551606 0 2.1560001
1.0767877 0 2.1790001
1.1011283 0 2.207
1.1312761 0 2.2460001
1.1851836 0 2.3310001
1.2511905 0 2.4380002
1.3083746 0 2.526
1.3256242 0 2.536
1.3492986 0 2.5580001
1.3694569 0 2.5730002
1.383314 0 2.5760002
1.3966576 0 2.5780001
1.409474 0 2.5790002
1.4217485 0 2.5790002
1.4334668 0 2.5780001
1.4451759 0 2.5770001
1.4563098 0 2.575
1.4668542 0 2.572
1.4710444 0 2.5580001
1.4820595 0 2.5560002
1.4895476 0 2.5480001
1.5016747 0 2.5480001
1.5114253 0 2.5440001
1.5259285 0 2.5480001
1.5338302 0 2.5410001
1.5331477 0 2.5200002
1.5414623 0 2.5140002
1.5503379 0 2.5090001
1.5541847 0 2.4960001
1.5641817 0 2.493
1.5760469 0 2.493
1.5872754 0 2.4920001
1.5991358 0 2.4920001
1.6109962 0 2.4920001
1.6163445 0 2.4820001
0 -0 0
1.6082543 0 2.434
1.6171768 0 2.4300001
1.626061 0 2.4260001
1.6234319 0 2.4050002
1.6362379 0 2.4070001
1.6463246 0 2.4050002
1.6481208 0 2.391
1.6581125 0 2.3890002
1.6687837 0 2.388
1.6794457 0 2.3870001
1.6908065 0 2.3870001
1.7007411 0 2.3850002
1.7120923 0 2.3850002
1.7133267 0 2.3710001
1.7231566 0 2.3690002
1.7329673 0 2.3670001
1.7376008 0 2.358
1.7421488 0 2.3490002
1.7495964 0 2.3440001
1.7584989 0 2.3410001
1.7666171 0 2.3370001
1.7746969 0 2.3330002
1.7842697 0 2.3310001
1.7930533 0 2.3280001
1.8018082 0 2.325
1.8113145 0 2.3230002
1.8192326 0 2.319
1.827902 0 2.3160002
1.8365427 0 2.3130002
1.8459537 0 2.3110001
1.8561492 0 2.3100002
1.866335 0 2.309
1.8756986 0 2.3070002
1.8858606 0 2.306
1.8951907 0 2.3040001
1.9053292 0 2.3030002
1.9146258 0 2.3010001
1.927251 0 2.3030002
1.9272711 0 2.2900002
1.9381701 0 2.2900002
1.9482179 0 2.289
1.9599683 0 2.2900002
1.9691459 0 2.2880001
0 -0 0
0 -0 0
0 -0 0
0 -0 0
0 -0 0
0 -0 0
0 -0 0
0 -0 0
0 -0 0
0 -0 0
0 -0 0
0 -0 0
0 -0 0
0 -0 0
0 -0 0
0 -0 0
0 -0 0
0 -0 0
0 -0 0
0 -0 0
0 -0 0
0 -0 0
0 -0 0
0 -0 0
0 -0 0
0 -0 0
0 -0 0
-0 -0 0
-0 -0 0
-0 -0 0
-0 -0 0
-0 -0 0
-0 -0 0
-0 -0 0
-2.390729 0 2.4130001
-2.3703704 0 2.404
-2.3550038 0 2.4000001
-2.3406518 0 2.3970001
-2.3263283 0 2.3940001
-2.3120332 0 2.391
-2.2977667 0 2.388
-2.2911887 0 2.3930001
-2.2788467 0 2.3920002
-2.2522953 0 2.3760002
-2.24193 0 2.3770001
-2.2334323 0 2.3800001
-2.2249057 0 2.3830001
-2.2126353 0 2.3820002
-2.2317948 0 2.4150002
-2.2230589 0 2.4180002
-2.2152092 0 2.4220002
-2.2055016 0 2.424
-2.1903443 0 2.4200001
-0 -0 0
-0 -0 0
-0 -0 0
-0 -0 0
-0 -0 0
-0 -0 0
-0 -0 0
-0 -0 0
-0 -0 0
-2.2406657 0 2.6130002
-2.2572227 0 2.6470001
-2.2878718 0 2.6980002
-2.3230951 0 2.7550001
-2.3342984 0 2.7840002
-2.3435583 0 2.8110001
-2.3558772 0 2.8420002
-2.3703735 0 2.8760002
-2.3878236 0 2.914
-2.4000242 0 2.9460001
-2.4103005 0 2.9760001
-2.4291477 0 3.0170002
-2.4155889 0 3.0180001
-2.4020207 0 3.0190001
-2.3939791 0 3.0270002
-2.3835027 0 3.0320001
-2.3675096 0 3.0300002
-2.3569715 0 3.0350001
-2.3440704 0 3.0370002
-2.3357527 0 3.0450001
-2.3403182 0 3.0700002
-2.3294945 0 3.075
-2.316365 0 3.0770001
-2.3032165 0 3.0790002
-2.290792 0 3.0820003
-2.2776005 0 3.0840001
-2.2636561 0 3.085
-2.2803206 0 3.1280003
-2.261812 0 3.1230001
-2.2476678 0 3.1240001
-2.2435203 0 3.1390002
-2.2314205 0 3.1430001
-2.2185771 0 3.1460001
-2.2050049 0 3.1480002
-2.1921096 0 3.1510003
-2.1854036 0 3.1630001
-2.1682911 0 3.1600001
-2.1696053 0 3.1840003
-2.1700141 0 3.2070003
-2.1601257 0 3.2150002
-2.1481602 0 3.2200003
-2.1394584 0 3.2300003
-2.1477594 0 3.2660003
-2.1237283 0 3.2530003
-2.1108382 0 3.2570002
-2.1017702 0 3.2670002
-2.0874982 0 3.2690001
-2.091588 0 3.3000002
-2.0733657 0 3.2960002
-2.0720377 0 3.3190002
-2.0574801 0 3.3210001
-2.0441329 0 3.325
-2.0270882 0 3.3230002
-2.0118778 0 3.3240001
-1.9954571 0 3.3230002
-1.9802374 0 3.3240001
-1.9655989 0 3.3260002
-1.9532864 0 3.3320003
-1.9292877 0 3.3180001
-1.8967717 0 3.2890003
-1.8805459 0 3.2880001
-1.8665984 0 3.2910001
-1.8503729 0 3.2900002
-1.8291378 0 3.2800002
-1.8135269 0 3.2800002
-1.8176494 0 3.3160002
-1.8002369 0 3.3130002
-1.8065525 0 3.3540001
-1.7900558 0 3.3530002
-1.7931453 0 3.3890002
-1.7812103 0 3.3970001
-1.7624449 0 3.3920002
-1.7437266 0 3.3870001
-1.7327071 0 3.3970001
-1.7175502 0 3.3990002
-1.702374 0 3.4010003
-1.6866831 0 3.4020002
-1.6709825 0 3.4030001
-1.6518686 0 3.3970001
-1.637627 0 3.4010003
-1.6257309 0 3.4100001
-1.6099734 0 3.4110003
-1.5937392 0 3.4110003
-1.5770421 0 3.4100001
-1.5594394 0 3.4070001
-1.5418652 0 3.404
-1.5247679 0 3.4020002
-1.5076895 0 3.4000001
-1.4901915 0 3.3970001
-1.4688166 0 3.3850002
-1.4518477 0 3.3830001
-1.4306538 0 3.3710001
-1.4150295 0 3.3720002
-1.3993957 0 3.3730001
-1.3833421 0 3.3730001
-1.3672886 0 3.3730001
-1.3652563 0 3.4080002
-1.3593283 0 3.4340003
-1.3574544 0 3.4710002
-1.3424798 0 3.4750001
-1.3446376 0 3.5240002
-1.3467057 0 3.5740001
-1.3389969 0 3.5990002
-1.3306825 0 3.6230001
-1.3203273 0 3.6420002
-1.3180199 0 3.6840003
-1.3018981 0 3.6880002
-1.2843454 0 3.6880002
-1.2667928 0 3.6880002
-1.239078 0 3.6580002
-1.2079753 0 3.6170001
-1.1789088 0 3.5810001
-1.1595942 0 3.5740001
-1.1323539 0 3.5420001
-1.1208501 0 3.5590003
-1.1029807 0 3.5560002
-1.1016324 0 3.6070001
-1.0847659 0 3.6080003
-1.0924492 0 3.6920002
-1.0740041 0 3.6890001
-1.0707655 0 3.7390001
-1.0647979 0 3.7810001
-1.0528935 0 3.8030002
-1.0405076 0 3.8240001
-1.0223075 0 3.8240001
-1.0098844 0 3.8460002
-0.99725181 0 3.8680003
-0.98466271 0 3.8910003
-0.97731745 0 3.9360001
-0.95858437 0 3.9360001
-0.94534338 0 3.9590001
-0.92650086 0 3.9590001
-0.91843379 0 4.006
-0.90475571 0 4.0300002
-0.89634281 0 4.079
-0.88230383 0 4.1040001
-0.86802685 0 4.1290002
-0.85371739 0 4.1550002
-0.84437895 0 4.2070003
-0.82435608 0 4.2070003
-0.80930412 0 4.2330003
-0.78915757 0 4.2330003
-0.76901096 0 4.2330003
-0.75364095 0 4.2600002
-0.73336589 0 4.2600002
-0.71309078 0 4.2600002
-0.69720674 0 4.2870002
-0.67680317 0 4.2870002
-0.66053367 0 4.3140001
-0.64000154 0 4.3140001
-0.6194694 0 4.3140001
-0.60282475 0 4.342
-0.58215934 0 4.342
-0.56149399 0 4.342
-0.54082859 0 4.342
-0.51680893 0 4.3140001
-0.49006477 0 4.2600002
-0.46978965 0 4.2600002
-0 -0 0
-0 -0 0
-0 -0 0
-0 -0 0
-0 -0 0
-0 -0 0
-0 -0 0
-0.13920926 0 1.9280001
-0.12976333 0 1.9240001
-0.12035547 0 1.9200001
-0.11086985 0 1.914
-0.10154767 0 1.9100001
-0.092360392 0 1.9080001
-0.08319214 0 1.9060001
-0.074120693 0 1.9060001
-0.065083385 0 1.9070001
-0.056095295 0 1.9100001
-0.04707865 0 1.9130001
-0.038053297 0 1.9170001
-0.029004959 0 1.9220001
-0.019909028 0 1.927
-0.010765503 0 1.932
-0.0015751969 0 1.9380001
0.0076682759 0 1.9430001
0.016950637 0 1.9470001
0.026284538 0 1.9520001
0.035684258 0 1.9580001
0.045485858 0 1.9790001
0.055098936 0 1.9860001
0.064681143 0 1.9900001
0.074264161 0 1.9930001
0.083791688 0 1.9940001
0.093281955 0 1.9940001
0.10261759 0 1.9910001
0.11147429 0 1.9800001
0.12065368 0 1.9760001
0.12972918 0 1.9710001
0.1380513 0 1.9560001
0.14705938 0 1.9520001
0.15586916 0 1.9460001
0.16470668 0 1.9410001
0.17358623 0 1.937
0.18223897 0 1.9310001
0.19083458 0 1.9250001
0.19906141 0 1.9160001
0.20676793 0 1.9030001
0.21491779 0 1.8950001
0.2229915 0 1.8870001
0.23111199 0 1.8800001
0.23929353 0 1.8740001
0.24741797 0 1.868
0.25548527 0 1.8620001
0.26349548 0 1.8560001
0.27144861 0 1.8500001
0.27934456 0 1.8440001
0.28718343 0 1.8380001
0.2951262 0 1.8330001
0.30252406 0 1.825
0.31018683 0 1.8190001
0.3179678 0 1.8140001
0.32552108 0 1.8080001
0.33301726 0 1.802
0.33893985 0 1.7880001
0.34608942 0 1.7810001
0.35317233 0 1.774
0.35896558 0 1.761
0.36588672 0 1.7540001
0.37295452 0 1.748
0.37952906 0 1.7400001
0.38669604 0 1.7350001
0.39358777 0 1.7290001
0.40088719 0 1.725
0.40791139 0 1.72
0.41488796 0 1.715
0.42132363 0 1.7080001
0.42794406 0 1.702
0.43450746 0 1.6960001
0.44127464 0 1.6910001
0.44693133 0 1.682
0.45033866 0 1.6650001
0.45633644 0 1.6580001
0.4625476 0 1.6520001
0.46898639 0 1.6470001
0.47566709 0 1.6430001
0.48289827 0 1.641
0.49070844 0 1.641
0.49882242 0 1.6420001
0.50725448 0 1.6440001
0.51601887 0 1.6470001
0.5248118 0 1.6500001
0.53557032 0 1.659
0.55100065 0 1.682
0.56166476 0 1.6900001
0.58319241 0 1.7300001
0.5910843 0 1.7290001
0.6017397 0 1.7360001
0.61246175 0 1.743
0.62253809 0 1.748
0.63951916 0 1.7720001
0.65087819 0 1.7800001
0.66453582 0 1.794
0.67870194 0 1.8090001
0.68959135 0 1.8150001
0.71092474 0 1.848
0.7232253 0 1.8570001
0.72890979 0 1.8490001
0.73970479 0 1.8540001
0.75337356 0 1.8660001
0.77777749 0 1.904
0.79014546 0 1.9120001
0.81889224 0 1.9590001
0.82863867 0 1.96
0.83540189 0 1.9540001
0.8593998 0 1.988
0.8714838 0 1.9940001
0.88274133 0 1.9980001
0.89894921 0 2.013
0.92387521 0 2.0470002
0.93452984 0 2.049
0.94658619 0 2.0540001
0.97358954 0 2.0910001
0.98071921 0 2.085
1.0063219 0 2.118
1.0178419 0 2.1210001
1.0444148 0 2.1550002
1.0585865 0 2.1630001
1.0757993 0 2.177
1.1016273 0 2.2080002
1.1302688 0 2.2440002
1.1846752 0 2.3300002
1.2378472 0 2.4120002
1.2964616 0 2.503
1.3261471 0 2.5370002
1.3556285 0 2.5700002
1.3699892 0 2.5740001
1.3811659 0 2.572
1.3944905 0 2.5740001
1.4111134 0 2.582
1.4234023 0 2.582
1.435691 0 2.582
1.447419 0 2.5810001
1.4585721 0 2.5790002
1.4691355 0 2.5760002
1.4790955 0 2.572
1.4820595 0 2.5560002
1.4971473 0 2.5610001
1.5069789 0 2.5570002
1.5108311 0 2.5430002
1.5241319 0 2.5450001
1.522361 0 2.5220001
1.5331477 0 2.5200002
1.540236 0 2.5120001
1.5491022 0 2.5070002
1.5566753 0 2.5
1.5673189 0 2.4980001
1.5766792 0 2.4940002
1.5879122 0 2.493
1.6017025 0 2.4960001
1.6045315 0 2.4820001
1.615042 0 2.48
1.5960139 0 2.4330001
1.6062722 0 2.4310002
1.6145147 0 2.4260001
1.6227096 0 2.421
1.625457 0 2.4080002
1.6375974 0 2.4090002
1.64564 0 2.404
1.6494994 0 2.3930001
1.6595006 0 2.391
1.6694827 0 2.3890002
1.6794457 0 2.3870001
1.6900982 0 2.3860002
1.7000278 0 2.3840001
1.7106564 0 2.3830001
1.7126042 0 2.3700001
1.7238839 0 2.3700001
1.7336993 0 2.368
1.7405485 0 2.3620002
1.7339904 0 2.3380001
1.7421322 0 2.3340001
1.75925 0 2.342
1.7673728 0 2.3380001
1.7746969 0 2.3330002
1.7835044 0 2.3300002
1.7922832 0 2.3270001
1.8002584 0 2.3230002
1.809755 0 2.3210001
1.8176637 0 2.3170002
1.8263234 0 2.3140001
1.8341607 0 2.3100002
1.8435574 0 2.3080001
1.852935 0 2.306
1.8639102 0 2.306
1.8740724 0 2.3050001
1.8825893 0 2.302
1.8927231 0 2.3010001
1.8978832 0 2.2940001
1.907137 0 2.2920001
1.9146982 0 2.2880001
1.9239045 0 2.286
1.9347845 0 2.286
1.9448135 0 2.2850001
1.9565446 0 2.286
1.9665639 0 2.2850001
0 -0 0
0 -0 0
0 -0 0
0 -0 0
0 -0 0
0 -0 0
0 -0 0
0 -0 0
0 -0 0
1.6330062 0 1.7980001
1.6424767 0 1.7990001
0 -0 0
0 -0 0
0 -0 0
0 -0 0
0 -0 0
0 -0 0
0 -0 0
0 -0 0
0 -0 0
0 -0 0
0 -0 0
0 -0 0
0 -0 0
0 -0 0
0 -0 0
0 -0 0
-0 -0 0
-0 -0 0
-0 -0 0
-0 -0 0
-0 -0 0
-0 -0 0
-0 -0 0
-0 -0 0
-2.3733284 0 2.4070001
-2.3579476 0 2.4030001
-2.3445575 0 2.401
-2.331187 0 2.3990002
-2.3168681 0 2.3960001
-2.3045025 0 2.3950002
-2.3045931 0 2.4070001
-2.2931371 0 2.4070001
-2.2845249 0 2.4100001
-2.2749414 0 2.4120002
-2.2634616 0 2.4120002
-2.25665 0 2.4170001
-2.243289 0 2.4150002
-2.2354915 0 2.4190001
-2.225817 0 2.421
-2.2170384 0 2.424
-2.2073214 0 2.4260001
-2.19487 0 2.4250002
-0 -0 0
-0 -0 0
-0 -0 0
-0 -0 0
-0 -0 0
-0 -0 0
-0 -0 0
-0 -0 0
-0 -0 0
-2.2406657 0 2.6130002
-2.2580755 0 2.6480002
-2.2878718 0 2.6980002
-2.3230951 0 2.7550001
-2.3284292 0 2.7770002
-2.3435583 0 2.8110001
-2.3567059 0 2.8430002
-2.3711975 0 2.8770001
-2.3878236 0 2.914
-2.4008389 0 2.947
-2.4103005 0 2.9760001
-2.4283423 0 3.016
-2.4163892 0 3.0190001
-2.4028163 0 3.0200002
-2.4026785 0 3.0380001
-2.3850751 0 3.0340002
-2.3690722 0 3.0320001
-2.3585248 0 3.0370002
