# .PCD v0.7 - Point Cloud Data file format
VERSION 0.7
FIELDS x y z
SIZE 4 4 4
TYPE F F F
COUNT 1 1 1
WIDTH 2391
HEIGHT 1
VIEWPOINT 0 0 0 1 0 0 0
POINTS 2391
DATA ascii
0.20937203 0 1.34
0.21574965 0 1.34
0.22229302 0 1.3410001
0.2286754 0 1.3410001
0.23505777 0 1.3410001
0.24144015 0 1.3410001
0.2480073 0 1.342
0.25439444 0 1.342
0.26078159 0 1.342
0.26736778 0 1.3430001
0.27375966 0 1.3430001
0.28036019 0 1.3440001
0.28675681 0 1.3440001
0.29315346 0 1.3440001
0.29955012 0 1.3440001
0.3061744 0 1.345
0.31257579 0 1.345
0.31921437 0 1.3460001
0.32586247 0 1.3470001
0.33252007 0 1.348
0.33943859 0 1.35
0.34586382 0 1.35
0.35255 0 1.3510001
0.35924566 0 1.3520001
0.36595088 0 1.353
0.37294081 0 1.355
0.37966985 0 1.3560001
0.38640836 0 1.3570001
0.39286685 0 1.3570001
0 -0 0
0 -0 0
0 -0 0
0 -0 0
0 -0 0
0 -0 0
0 -0 0
1.0492599 0 3.2030001
1.0668306 0 3.21
1.0814342 0 3.2080002
1.0850791 0 3.1740003
1.1001854 0 3.1740003
1.1188056 0 3.1840003
1.1197138 0 3.1440001
1.1346773 0 3.1440001
1.1489097 0 3.1420002
1.1623821 0 3.1380002
1.1619346 0 3.0970001
1.1622369 0 3.0590003
1.1421729 0 2.9690001
1.123589 0 2.8850002
1.1089363 0 2.8130002
1.094795 0 2.7440002
1.0848417 0 2.687
1.081699 0 2.6480002
1.078185 0 2.6090002
1.0901842 0 2.608
1.0890681 0 2.5760002
1.0949152 0 2.5610001
1.1014843 0 2.5480001
1.1136112 0 2.5480001
1.123971 0 2.5440001
1.1342927 0 2.5400002
1.1454788 0 2.5380001
1.1575582 0 2.5380001
1.1700984 0 2.539
1.1835794 0 2.5420001
1.1961483 0 2.5430002
1.2082515 0 2.5430002
1.2198747 0 2.5420001
1.218403 0 2.5140002
1.2098131 0 2.4720001
1.2176251 0 2.4640002
1.2278554 0 2.4610002
1.2370499 0 2.4560001
1.2477223 0 2.4540002
1.2563226 0 2.4480002
1.2674556 0 2.447
1.2785792 0 2.4460001
1.2896932 0 2.4450002
1.2992011 0 2.4410002
1.3092078 0 2.4380002
1.3197277 0 2.4360001
1.3143796 0 2.4050002
1.3274798 0 2.4080002
1.3155868 0 2.3660002
1.3251652 0 2.3630002
1.334715 0 2.3600001
1.343666 0 2.3560002
1.3531539 0 2.3530002
1.3626133 0 2.3500001
1.3714595 0 2.3460002
1.3838037 0 2.348
1.3931965 0 2.345
1.4031596 0 2.3430002
1.4112927 0 2.3380001
1.4199867 0 2.3340001
1.422511 0 2.3200002
1.432317 0 2.3180001
1.4346321 0 2.3040001
1.446225 0 2.3050001
1.4565634 0 2.3040001
1.4751725 0 2.3160002
1.4906871 0 2.3230002
1.5017433 0 2.3230002
1.5108458 0 2.3200002
1.5192636 0 2.3160002
1.5276433 0 2.312
1.5299956 0 2.299
1.5241809 0 2.2740002
1.5093528 0 2.2360001
1.5172758 0 2.2320001
1.5217378 0 2.223
1.5261142 0 2.214
1.5331814 0 2.2090001
1.5408996 0 2.2050002
1.5436547 0 2.194
1.5512636 0 2.1900001
1.556695 0 2.1830001
1.5728277 0 2.1910002
1.5803651 0 2.187
1.5885916 0 2.184
1.5960578 0 2.1800001
1.6012751 0 2.1730001
1.6086507 0 2.1690001
1.6018063 0 2.1460001
1.6112689 0 2.1450002
1.6214778 0 2.1450002
1.6324474 0 2.1460001
1.6449574 0 2.1490002
1.6567258 0 2.151
1.6731631 0 2.1590002
1.696694 0 2.1760001
1.7305852 0 2.2060001
1.7876501 0 2.2650001
1.8683031 0 2.3530002
1.9617751 0 2.4560001
2.0305147 0 2.5270002
2.0457749 0 2.5310001
2.093595 0 2.575
2.1058505 0 2.575
2.1172833 0 2.5740001
2.1278794 0 2.572
2.1359601 0 2.5670002
2.134788 0 2.5510001
2.1452463 0 2.549
2.1455288 0 2.5350001
2.1550405 0 2.5320001
2.1636679 0 2.5280001
2.1713963 0 2.523
2.1834044 0 2.523
2.1710482 0 2.4950001
2.1899219 0 2.503
2.1903989 0 2.49
2.2102101 0 2.4990001
2.2069874 0 2.4820001
2.2205882 0 2.4840002
2.2333093 0 2.4850001
2.2677233 0 2.5100002
0 -0 0
0 -0 0
0 -0 0
0 -0 0
0 -0 0
0 -0 0
0 -0 0
0 -0 0
0 -0 0
0 -0 0
0 -0 0
0 -0 0
0 -0 0
0 -0 0
0 -0 0
0 -0 0
0 -0 0
0 -0 0
-0 -0 0
-0 -0 0
-0 -0 0
-0 -0 0
-0 -0 0
-0 -0 0
-0 -0 0
-2.9594312 0 2.9870002
-2.9343686 0 2.9760001
-2.9123547 0 2.9680002
-2.8972523 0 2.9670002
-2.8899333 0 2.9740002
-2.8777127 0 2.9760001
-2.865473 0 2.9780002
-2.8608742 0 2.9880002
-2.8476057 0 2.9890001
-2.8447549 0 3.0010002
-0 -0 0
-0 -0 0
-0 -0 0
-0 -0 0
-0 -0 0
-0 -0 0
-2.9597096 0 3.2360001
-2.9634154 0 3.2570002
-2.9832129 0 3.2960002
-2.9666255 0 3.2950001
-2.9912446 0 3.3400002
-2.9798021 0 3.3450003
-2.9780588 0 3.3610001
-2.974401 0 3.3750002
-2.974992 0 3.3940001
-2.9884796 0 3.4280002
-3.0146484 0 3.4770002
-3.0300038 0 3.5140002
-3.0467222 0 3.5530002
-3.0340755 0 3.5580001
-3.0383413 0 3.5830002
-3.0221314 0 3.5840001
-3.0101047 0 3.5900002
-2.9955194 0 3.5930002
-2.9792476 0 3.5940001
-2.9670875 0 3.6000001
-2.9491343 0 3.5990002
-2.9303756 0 3.5970001
-2.9140663 0 3.5980003
-2.9074087 0 3.6110001
-2.8918233 0 3.6130002
-2.8674669 0 3.6040001
-2.8811581 0 3.6430001
-2.8653917 0 3.6450002
-2.848825 0 3.6460001
-2.8617594 0 3.6850002
-2.8457646 0 3.6870003
-2.828217 0 3.6870003
-2.8442109 0 3.7310002
-2.825696 0 3.7300003
-2.8305275 0 3.7600002
-2.8283408 0 3.7810001
-2.8266976 0 3.8030002
-2.8241067 0 3.8240001
-2.8220494 0 3.8460002
-2.8037446 0 3.8460002
-2.7695067 0 3.8240001
-2.7361975 0 3.8030002
-2.6873641 0 3.7600002
-2.6211913 0 3.6920002
-2.6050301 0 3.6940002
-2.5391178 0 3.6250002
-2.5190823 0 3.6210003
-2.4942482 0 3.6100001
-2.4770665 0 3.6100001
-2.4850974 0 3.6470001
-2.4690931 0 3.6490002
-2.4530697 0 3.6510003
-2.4356933 0 3.6510003
-2.442162 0 3.6870003
-2.4259291 0 3.6890001
-2.4070661 0 3.6870003
-2.389518 0 3.6870003
-2.3989899 0 3.7290001
-2.3812423 0 3.7290001
-2.3964527 0 3.7810001
-2.4055066 0 3.8240001
-2.4010415 0 3.8460002
-2.3963666 0 3.8680003
-2.392097 0 3.8910003
-2.3869984 0 3.9130001
-2.3822958 0 3.9360001
-2.3635626 0 3.9360001
-2.3585317 0 3.9590001
-2.3396893 0 3.9590001
-2.3349159 0 3.9830003
-2.3293328 0 4.006
-2.3102665 0 4.006
-2.2912002 0 4.006
-2.259089 0 3.9830003
-2.2401323 0 3.9830003
-2.1949651 0 3.9360001
-2.1762321 0 3.9360001
-2.1574993 0 3.9360001
-2.1387661 0 3.9360001
-2.120033 0 3.9360001
-2.1013 0 3.9360001
-2.1074352 0 3.9830003
-2.0884783 0 3.9830003
-2.0695217 0 3.9830003
-2.0624058 0 4.006
-2.0433395 0 4.006
-2.0126514 0 3.9830003
-1.9816813 0 3.9590001
-1.9628389 0 3.9590001
-1.9439963 0 3.9590001
-1.9251539 0 3.9590001
-1.9063114 0 3.9590001
-1.898911 0 3.9830003
-1.902138 0 4.0300002
-1.8946385 0 4.0550003
-1.9095622 0 4.1290002
-1.9018112 0 4.1550002
-1.8933599 0 4.1800003
-1.8972199 0 4.2330003
-1.8770734 0 4.2330003
-1.8687712 0 4.2600002
-1.848496 0 4.2600002
-1.8398082 0 4.2870002
-1.8308635 0 4.3140001
-1.8220812 0 4.342
-1.8134476 0 4.3710003
-1.8041276 0 4.3990002
-1.8067019 0 4.4570003
-1.7975073 0 4.487
-1.7880272 0 4.5170002
-1.7786525 0 4.5480003
-1.7689828 0 4.579
-1.7712282 0 4.6420002
-1.7611927 0 4.6740003
-1.7512248 0 4.7070003
-1.7530631 0 4.7730002
-1.7553608 0 4.842
-1.7448379 0 4.8770003
-1.7470428 0 4.9490004
-1.7363737 0 4.9860001
-1.7253525 0 5.0230002
-1.7143177 0 5.0610003
-1.7029213 0 5.0990005
-1.6914922 0 5.138
-1.6670383 0 5.138
-1.6550525 0 5.177
-1.6304131 0 5.177
-1.6181806 0 5.2170005
-1.5933509 0 5.2170005
-1.5564947 0 5.177
-1.5203152 0 5.138
-1.4845071 0 5.0990005
-0 -0 0
-0 -0 0
-0 -0 0
-0 -0 0
-0 -0 0
-0 -0 0
-0.69405425 0 2.6920002
-0.67491525 0 2.6670001
-0.65278649 0 2.6290002
-0.63905627 0 2.6240001
-0.62537366 0 2.6190002
-0.6122067 0 2.6160002
-0.59929752 0 2.6140001
-0.58663195 0 2.6130002
-0.57441533 0 2.6140001
-0.56261921 0 2.6170001
-0.55100471 0 2.6210001
-0.53935218 0 2.6250002
-0.52966863 0 2.6390002
-0.51926398 0 2.6500001
-0.51238722 0 2.6800001
-0.50056416 0 2.6850002
-0.4897835 0 2.6960001
-0.47712901 0 2.697
-0.46480936 0 2.7
-0.45229372 0 2.7020001
-0.43943378 0 2.7020001
-0.42641604 0 2.7010002
-0.41310149 0 2.6980002
-0.39937046 0 2.6920002
-0.3874197 0 2.6980002
-0.36944187 0 2.661
-0.3549 0 2.6470001
-0.34139663 0 2.6400001
-0.32746166 0 2.6290002
-0.31435016 0 2.6240001
-0.30174646 0 2.6230001
-0.2888214 0 2.6190002
-0.27603993 0 2.6160002
-0.26318628 0 2.6120002
-0.25037068 0 2.608
-0.23759317 0 2.6040001
-0.22485372 0 2.6000001
-0.21198893 0 2.5940001
-0.19979694 0 2.5960002
-0.18520316 0 2.5650001
-0 -0 0
-0 -0 0
-0 -0 0
-0 -0 0
-0 -0 0
-0 -0 0
-0 -0 0
-0 -0 0
-0.03950166 0 1.345
-0.033075646 0 1.3440001
-0.026659142 0 1.3430001
-0.020237071 0 1.3410001
-0.013844368 0 1.34
-0.0074611851 0 1.3390001
-0.0010875198 0 1.3380001
0.005276626 0 1.337
0.011631254 0 1.3360001
0.017976362 0 1.335
0.024330176 0 1.335
0.030683991 0 1.335
0.037037805 0 1.335
0.043391619 0 1.335
0.049745433 0 1.335
0.05605723 0 1.3340001
0.062406287 0 1.3340001
0.068806872 0 1.335
0.07516069 0 1.335
0.081514508 0 1.335
0.087868318 0 1.335
0.094222128 0 1.335
0.10057595 0 1.335
0.10692976 0 1.335
0.11336844 0 1.3360001
0.11972702 0 1.3360001
0.12617995 0 1.337
0.1325433 0 1.337
0.13890663 0 1.337
0.14526995 0 1.337
0.15174671 0 1.3380001
0.15811479 0 1.3380001
0.16448289 0 1.3380001
0.17085099 0 1.3380001
0.17721908 0 1.3380001
0.18372437 0 1.3390001
0.19009724 0 1.3390001
0.1964701 0 1.3390001
0.20284294 0 1.3390001
0.20937203 0 1.34
0.21574965 0 1.34
0.22229302 0 1.3410001
0.2286754 0 1.3410001
0.23505777 0 1.3410001
0.24162018 0 1.342
0.24819212 0 1.3430001
0.25458401 0 1.3430001
0.2609759 0 1.3430001
0.26756686 0 1.3440001
0.27396354 0 1.3440001
0.28056878 0 1.345
0.28697017 0 1.345
0.29337159 0 1.345
0.29977301 0 1.345
0.30640203 0 1.3460001
0.31280822 0 1.3460001
0.31945154 0 1.3470001
0.32610437 0 1.348
0.33276674 0 1.3490001
0.33969006 0 1.3510001
0.34637624 0 1.3520001
0.3530719 0 1.353
0.35977709 0 1.3540001
0.36649182 0 1.355
0.37321603 0 1.3560001
0.37994984 0 1.3570001
0.38669309 0 1.358
0.39315635 0 1.358
0 -0 0
0 -0 0
0 -0 0
0 -0 0
0 -0 0
0 -0 0
0 -0 0
1.051553 0 3.21
1.0664983 0 3.2090001
1.0814342 0 3.2080002
1.0850791 0 3.1740003
1.1001854 0 3.1740003
1.1043988 0 3.1430001
1.1197138 0 3.1440001
1.1350383 0 3.1450002
1.1500068 0 3.1450002
1.1620116 0 3.1370001
1.1615595 0 3.0960002
1.1527383 0 3.0340002
1.1417882 0 2.9680002
1.1239785 0 2.8860002
1.1085421 0 2.812
1.094795 0 2.7440002
1.0852456 0 2.6880002
1.0821075 0 2.6490002
1.078185 0 2.6090002
1.0910203 0 2.6100001
1.085263 0 2.5670002
1.0953426 0 2.562
1.1027812 0 2.5510001
1.1149224 0 2.5510001
1.1248546 0 2.546
1.1356324 0 2.5430002
1.1468328 0 2.5410001
1.1584704 0 2.5400002
1.1710203 0 2.5410001
1.1840451 0 2.5430002
1.1961483 0 2.5430002
1.2077763 0 2.5420001
1.218915 0 2.5400002
1.2179183 0 2.513
1.2269424 0 2.5070002
1.2176251 0 2.4640002
1.2288532 0 2.4630001
1.2375536 0 2.457
1.2497561 0 2.4580002
1.2563226 0 2.4480002
1.2674556 0 2.447
1.279102 0 2.447
1.2907481 0 2.447
1.3194262 0 2.4790001
1.3296138 0 2.4760001
1.3359804 0 2.4660001
1.3373333 0 2.447
1.3285823 0 2.4100001
1.3161428 0 2.3670001
1.3257259 0 2.3640001
1.3352805 0 2.3610001
1.343666 0 2.3560002
1.3525788 0 2.352
1.3620335 0 2.3490002
1.3714595 0 2.3460002
1.3784996 0 2.3390002
1.3926024 0 2.3440001
1.4025606 0 2.342
1.4118965 0 2.3390002
1.420595 0 2.335
1.430482 0 2.3330002
1.4403498 0 2.3310001
1.4358773 0 2.306
1.4468524 0 2.306
1.4578277 0 2.306
1.4770832 0 2.319
1.4919704 0 2.325
1.5030361 0 2.325
1.5121481 0 2.322
1.5205755 0 2.3180001
1.5289649 0 2.3140001
1.5260026 0 2.2930002
1.5268619 0 2.2780001
1.510703 0 2.2380002
1.5193152 0 2.2350001
1.5224224 0 2.2240002
1.527493 0 2.2160001
1.5345696 0 2.2110002
1.5367067 0 2.1990001
1.5443584 0 2.1950002
1.551972 0 2.1910002
1.5581212 0 2.1850002
1.5728277 0 2.1910002
1.5810878 0 2.1880002
1.5893191 0 2.1850002
1.5967898 0 2.181
1.6027489 0 2.1750002
1.6101339 0 2.171
1.6032989 0 2.148
1.6112689 0 2.1450002
1.6214778 0 2.1450002
1.6324474 0 2.1460001
1.6441919 0 2.148
1.6574961 0 2.1520002
1.675488 0 2.1620002
1.6974738 0 2.177
1.7313697 0 2.207
1.7789685 0 2.2540002
1.8683031 0 2.3530002
1.9617751 0 2.4560001
2.0305147 0 2.5270002
2.0457749 0 2.5310001
2.094408 0 2.5760002
2.1066682 0 2.5760002
2.1181059 0 2.575
2.1287069 0 2.5730002
2.1367922 0 2.5680001
2.1431565 0 2.5610001
2.1334639 0 2.5350001
2.1421435 0 2.5310001
2.1516361 0 2.5280001
2.1602445 0 2.5240002
2.143856 0 2.4910002
2.1635003 0 2.5
2.143203 0 2.4630001
2.1549253 0 2.4630001
2.1675274 0 2.4640002
2.1819079 0 2.467
2.2025414 0 2.4770002
2.2188003 0 2.4820001
2.2324107 0 2.4840002
2.2451363 0 2.4850001
0 -0 0
0 -0 0
0 -0 0
0 -0 0
0 -0 0
0 -0 0
0 -0 0
0 -0 0
0 -0 0
0 -0 0
0 -0 0
0 -0 0
0 -0 0
0 -0 0
0 -0 0
0 -0 0
0 -0 0
0 -0 0
-0 -0 0
-0 -0 0
-0 -0 0
-0 -0 0
-0 -0 0
-0 -0 0
-0 -0 0
-2.9574497 0 2.9850001
-2.9392989 0 2.9810002
-2.921186 0 2.9770002
-2.903111 0 2.973
-2.8860462 0 2.97
-2.8767457 0 2.9750001
-2.8635485 0 2.9760001
-2.8532147 0 2.9800003
-2.8495111 0 2.9910002
-2.8333797 0 2.9890001
-0 -0 0
-0 -0 0
-0 -0 0
-0 -0 0
-0 -0 0
-0 -0 0
-0 -0 0
-2.9979899 0 3.2950001
-2.9832129 0 3.2960002
-3.0098419 0 3.3430002
-2.9921401 0 3.3410001
-2.9806929 0 3.3460002
-2.9754009 0 3.3580003
-2.9558933 0 3.3540001
-2.9732389 0 3.3920002
-2.9893513 0 3.4290001
-2.9912386 0 3.45
-3.0084469 0 3.4890001
-3.0467222 0 3.5530002
-3.0357811 0 3.5600002
-3.0357971 0 3.5800002
-3.0204451 0 3.5820003
-3.01262 0 3.5930002
-2.9963529 0 3.5940001
-2.9842215 0 3.6000001
-2.9670875 0 3.6000001
-2.9499536 0 3.6000001
-2.9613333 0 3.6350002
-2.9456527 0 3.6370001
-2.929148 0 3.6380002
-2.9174359 0 3.6450002
-2.9008834 0 3.6460001
-2.8803673 0 3.6420002
-2.8999808 0 3.6890001
-2.8777351 0 3.6830001
-2.862536 0 3.6860001
-2.8465366 0 3.6880002
-2.828984 0 3.6880002
-2.8442109 0 3.7310002
-2.8272109 0 3.7320001
-2.8305275 0 3.7600002
-2.8447976 0 3.8030002
-2.8423064 0 3.8240001
-2.8566017 0 3.8680003
-2.8381922 0 3.8680003
-2.8197827 0 3.8680003
-2.78544 0 3.8460002
-2.7513065 0 3.8240001
-2.7023733 0 3.7810001
-2.64817 0 3.7300003
-2.6036196 0 3.6920002
-2.5853472 0 3.6910002
-2.5420401 0 3.6540003
-2.523958 0 3.6530001
-2.5065718 0 3.6530001
-2.5109909 0 3.6850002
-2.4948058 0 3.6870003
-2.4792733 0 3.6900001
-2.4623785 0 3.6910002
-2.4633577 0 3.7190001
-2.4265866 0 3.6900001
-2.4312217 0 3.7240002
-2.4141455 0 3.7250001
-2.3983467 0 3.7280002
-2.4010382 0 3.7600002
-2.4103968 0 3.8030002
-2.4055066 0 3.8240001
-2.4010415 0 3.8460002
-2.3963666 0 3.8680003
-2.392097 0 3.8910003
-2.3869984 0 3.9130001
-2.3822958 0 3.9360001
-2.3635626 0 3.9360001
-2.3585317 0 3.9590001
-2.3538728 0 3.9830003
-2.3349159 0 3.9830003
-2.3293328 0 4.006
-2.3102665 0 4.006
-2.2912002 0 4.006
-2.2721341 0 4.006
-2.2401323 0 3.9830003
-2.2077916 0 3.9590001
-2.1762321 0 3.9360001
-2.1574993 0 3.9360001
-2.1387661 0 3.9360001
-2.120033 0 3.9360001
-2.1013 0 3.9360001
-2.0947366 0 3.9590001
-2.0884783 0 3.9830003
-2.0695217 0 3.9830003
-2.0624058 0 4.006
-2.0555813 0 4.0300002
-2.0242736 0 4.006
-1.9936947 0 3.9830003
-1.9628389 0 3.9590001
-1.9439963 0 3.9590001
-1.9251539 0 3.9590001
-1.9178678 0 3.9830003
-1.898911 0 3.9830003
-1.9139379 0 4.0550003
-1.9175329 0 4.1040001
-1.9095622 0 4.1290002
-1.9132543 0 4.1800003
-1.8933599 0 4.1800003
-1.8734655 0 4.1800003
-1.8535712 0 4.1800003
-1.8336769 0 4.1800003
-1.8137825 0 4.1800003
-1.7938882 0 4.1800003
-1.7854527 0 4.2070003
-1.7763404 0 4.2330003
-1.7673956 0 4.2600002
-1.7581939 0 4.2870002
-1.748735 0 4.3140001
-1.7394198 0 4.342
-1.730234 0 4.3710003
-1.7317222 0 4.428
-1.7218511 0 4.4570003
-1.7120854 0 4.487
-1.7020341 0 4.5170002
-1.7036027 0 4.579
-1.7049484 0 4.6420002
-1.7064197 0 4.7070003
-1.7201518 0 4.8080001
-1.721626 0 4.8770003
-1.7234885 0 4.9490004
-1.7126433 0 4.9860001
-1.7014458 0 5.0230002
-1.6775393 0 5.0230002
-1.6536329 0 5.0230002
-1.6420555 0 5.0610003
-1.6301166 0 5.0990005
-1.6181307 0 5.138
-1.5936767 0 5.138
-1.5811341 0 5.177
-1.5564947 0 5.177
-1.5203152 0 5.138
-1.4845071 0 5.0990005
-0 -0 0
-0 -0 0
-0 -0 0
-0 -0 0
-0 -0 0
-0 -0 0
-0.69276512 0 2.687
-0.67440921 0 2.6650002
-0.65303481 0 2.6300001
-0.63929987 0 2.6250002
-0.62561244 0 2.6200001
-0.61244071 0 2.6170001
-0.59952676 0 2.615
-0.5870809 0 2.615
-0.57463509 0 2.615
-0.56283414 0 2.618
-0.55121493 0 2.6220002
-0.53935218 0 2.6250002
-0.52986932 0 2.6400001
-0.51828426 0 2.6450002
-0.51200485 0 2.6780002
-0.50019127 0 2.6830001
-0.49014685 0 2.6980002
-0.47695211 0 2.6960001
-0.46463722 0 2.6990001
-0.45195892 0 2.7
-0.43910852 0 2.7
-0.42610025 0 2.6990001
-0.41279525 0 2.6960001
-0.39922211 0 2.6910002
-0.38368621 0 2.6720002
-0.36944187 0 2.661
-0.35516816 0 2.6490002
-0.34165525 0 2.6420002
-0.3284581 0 2.6370001
-0.31506896 0 2.6300001
-0.30174646 0 2.6230001
-0.2888214 0 2.6190002
-0.2758289 0 2.6140001
-0.26308551 0 2.6110001
-0.25008267 0 2.605
-0.23731944 0 2.6010001
-0.22450779 0 2.5960002
-0.21190721 0 2.5930002
-0.19979694 0 2.5960002
-0.18505877 0 2.5630002
-0 -0 0
-0 -0 0
-0 -0 0
-0 -0 0
-0 -0 0
-0 -0 0
-0 -0 0
-0 -0 0
-0.03950166 0 1.345
-0.033075646 0 1.3440001
-0.026659142 0 1.3430001
-0.020237071 0 1.3410001
-0.013844368 0 1.34
-0.0074611851 0 1.3390001
-0.0010875198 0 1.3380001
0.005276626 0 1.337
0.011631254 0 1.3360001
0.017976362 0 1.335
0.024330176 0 1.335
0.030683991 0 1.335
0.037037805 0 1.335
0.043391619 0 1.335
0.049745433 0 1.335
0.056099247 0 1.335
0.062406287 0 1.3340001
0.068755336 0 1.3340001
0.075104393 0 1.3340001
0.081514508 0 1.335
0.087868318 0 1.335
0.094222128 0 1.335
0.10057595 0 1.335
0.10692976 0 1.335
0.11336844 0 1.3360001
0.11972702 0 1.3360001
0.12617995 0 1.337
0.1325433 0 1.337
0.13890663 0 1.337
0.14526995 0 1.337
0.15163329 0 1.337
0.15811479 0 1.3380001
0.16448289 0 1.3380001
0.17085099 0 1.3380001
0.17721908 0 1.3380001
0.18372437 0 1.3390001
0.19009724 0 1.3390001
0.1964701 0 1.3390001
0.20284294 0 1.3390001
0.20937203 0 1.34
0.21574965 0 1.34
0.22229302 0 1.3410001
0.2286754 0 1.3410001
0.23505777 0 1.3410001
0.24162018 0 1.342
0.24819212 0 1.3430001
0.25458401 0 1.3430001
0.26117024 0 1.3440001
0.26756686 0 1.3440001
0.27416736 0 1.345
0.28056878 0 1.345
0.28718352 0 1.3460001
0.29358971 0 1.3460001
0.30021876 0 1.3470001
0.30662969 0 1.3470001
0.31304061 0 1.3470001
0.31968871 0 1.348
0.32634631 0 1.3490001
0.33301342 0 1.35
0.3399415 0 1.3520001
0.34663242 0 1.353
0.35333285 0 1.3540001
0.36004278 0 1.355
0.36676231 0 1.3560001
0.37349129 0 1.3570001
0.3802298 0 1.358
0.38697785 0 1.3590001
0.39344588 0 1.3590001
0 -0 0
0 -0 0
0 -0 0
0 -0 0
0 -0 0
0 -0 0
0 -0 0
1.0512254 0 3.2090001
1.066166 0 3.2080002
1.0814342 0 3.2080002
1.0973861 0 3.21
1.0998387 0 3.1730001
1.1138862 0 3.1700001
1.1197138 0 3.1440001
1.1357601 0 3.1470001
1.150738 0 3.1470001
1.1594187 0 3.1300001
1.1615595 0 3.0960002
1.1527383 0 3.0340002
1.1417882 0 2.9680002
1.124368 0 2.8870001
1.1085421 0 2.812
1.095194 0 2.7450001
1.0864568 0 2.6910002
1.082516 0 2.6500001
1.0785981 0 2.6100001
1.0918564 0 2.6120002
1.0856857 0 2.5680001
1.0961978 0 2.5640001
1.1027812 0 2.5510001
1.1166706 0 2.5550001
1.1261799 0 2.549
1.1369721 0 2.546
1.1481869 0 2.5440001
1.1598387 0 2.5430002
1.171942 0 2.5430002
1.1840451 0 2.5430002
1.1956779 0 2.5420001
1.2068261 0 2.5400002
1.2169954 0 2.536
1.218403 0 2.5140002
1.2284106 0 2.5100002
1.2191075 0 2.467
1.2313479 0 2.4680002
1.2390647 0 2.46
1.2533152 0 2.4650002
1.2696658 0 2.4740002
1.2850665 0 2.4810002
1.2984427 0 2.4840002
1.3113199 0 2.4860001
1.3215551 0 2.483
1.3328358 0 2.4820001
1.3348969 0 2.4640002
1.3389728 0 2.45
1.3291335 0 2.411
1.3383843 0 2.4070001
1.3459146 0 2.4000001
1.3352805 0 2.3610001
1.3442361 0 2.3570001
1.3531539 0 2.3530002
1.3620335 0 2.3490002
1.3714595 0 2.3460002
1.3814464 0 2.3440001
1.3914142 0 2.342
1.401363 0 2.3400002
1.4112927 0 2.3380001
1.420595 0 2.335
1.430482 0 2.3330002
1.4403498 0 2.3310001
1.4358773 0 2.306
1.4468524 0 2.306
1.4578277 0 2.306
1.4770832 0 2.319
1.4919704 0 2.325
1.5030361 0 2.325
1.5121481 0 2.322
1.5212314 0 2.319
1.5289649 0 2.3140001
1.5240061 0 2.2900002
1.5268619 0 2.2780001
1.5134031 0 2.2420001
1.5233939 0 2.2410002
1.5169461 0 2.2160001
1.5281821 0 2.217
1.5352637 0 2.2120001
1.5381044 0 2.2010002
1.5457654 0 2.197
1.5526804 0 2.1920002
1.5595473 0 2.187
1.5735456 0 2.1920002
1.5818104 0 2.1890001
1.5900464 0 2.1860001
1.5982542 0 2.1830001
1.6042225 0 2.177
1.6123589 0 2.174
1.6032989 0 2.148
1.612771 0 2.1470001
1.6222337 0 2.1460001
1.6324474 0 2.1460001
1.6449574 0 2.1490002
1.6567258 0 2.151
1.6677383 0 2.1520002
1.6974738 0 2.177
1.7337232 0 2.21
1.7908071 0 2.2690001
1.8683031 0 2.3530002
1.9913296 0 2.493
2.0305147 0 2.5270002
2.0457749 0 2.5310001
2.094408 0 2.5760002
2.1066682 0 2.5760002
2.1181059 0 2.575
2.1278794 0 2.572
2.1367922 0 2.5680001
2.1414828 0 2.559
2.1300974 0 2.5310001
2.1387579 0 2.5270002
2.1482317 0 2.5240002
2.1328561 0 2.4920001
2.1533229 0 2.5020001
2.1314805 0 2.4630001
2.143203 0 2.4630001
2.1549253 0 2.4630001
2.1666477 0 2.4630001
2.1801391 0 2.4650002
2.1980953 0 2.4720001
2.2259519 0 2.49
2.2378027 0 2.49
2.2469435 0 2.4870002
0 -0 0
0 -0 0
0 -0 0
0 -0 0
0 -0 0
0 -0 0
0 -0 0
0 -0 0
0 -0 0
0 -0 0
0 -0 0
0 -0 0
0 -0 0
0 -0 0
0 -0 0
0 -0 0
0 -0 0
0 -0 0
-0 -0 0
-0 -0 0
-0 -0 0
-0 -0 0
-0 -0 0
-0 -0 0
-0 -0 0
-2.9554679 0 2.983
-2.9373267 0 2.9790001
-2.9202046 0 2.9760001
-2.903111 0 2.973
-2.8889616 0 2.973
-2.8748116 0 2.973
-2.865473 0 2.9780002
-2.854172 0 2.9810002
-2.8476057 0 2.9890001
-2.8333797 0 2.9890001
-0 -0 0
-0 -0 0
-0 -0 0
-0 -0 0
-0 -0 0
-0 -0 0
-0 -0 0
-2.9988999 0 3.2960002
-2.984118 0 3.2970002
-3.0053401 0 3.3380001
-2.9939313 0 3.3430002
-2.9815836 0 3.3470001
-2.9727428 0 3.3550003
-2.9550121 0 3.3530002
-2.9723625 0 3.3910003
-2.9910948 0 3.4310002
-2.9903717 0 3.4490001
-3.0093093 0 3.4900002
-3.0227118 0 3.5250001
-3.039192 0 3.5640001
-3.0324054 0 3.5760002
-3.0170722 0 3.5780001
-3.0168126 0 3.5980003
-3.0005217 0 3.5990002
-2.9916821 0 3.6090002
-2.9720328 0 3.6060002
-2.954051 0 3.6050003
-2.964592 0 3.6390002
-2.9488926 0 3.6410003
-2.9339788 0 3.6440003
-2.9246395 0 3.6540003
-2.9024749 0 3.6480002
-2.8811581 0 3.6430001
-2.9007668 0 3.6900001
-2.879298 0 3.6850002
-2.8633127 0 3.6870003
-2.8473084 0 3.6890001
-2.829751 0 3.6890001
-2.8434486 0 3.7300003
-2.8264534 0 3.7310002
-2.8463361 0 3.7810001
-2.8605065 0 3.8240001
-2.8586586 0 3.8460002
-2.8566017 0 3.8680003
-2.8550687 0 3.8910003
-2.8365498 0 3.8910003
-2.8013735 0 3.8680003
-2.7513065 0 3.8240001
-2.7023733 0 3.7810001
-2.6495898 0 3.7320001
-2.6304173 0 3.7300003
-2.5853472 0 3.6910002
-2.568476 0 3.6920002
-2.5509043 0 3.6920002
-2.5326462 0 3.6910002
-2.5409729 0 3.7290001
-2.5245783 0 3.7310002
-2.5074928 0 3.7320001
-2.5084105 0 3.7600002
-2.490515 0 3.7600002
-2.4726195 0 3.7600002
-2.4547243 0 3.7600002
-2.4504387 0 3.7810001
-2.4324434 0 3.7810001
-2.4284968 0 3.8030002
-2.4237068 0 3.8240001
-2.4331853 0 3.8680003
-2.4147761 0 3.8680003
-2.4106159 0 3.8910003
-2.4056218 0 3.9130001
-2.4010289 0 3.9360001
-2.3962166 0 3.9590001
-2.3773742 0 3.9590001
-2.3728297 0 3.9830003
-2.3538728 0 3.9830003
-2.3483989 0 4.006
-2.3432879 0 4.0300002
-2.3241074 0 4.0300002
-2.3049269 0 4.0300002
-2.2857466 0 4.0300002
-2.253068 0 4.006
-2.2340016 0 4.006
-2.2022188 0 3.9830003
-2.1832621 0 3.9830003
-2.151264 0 3.9590001
-2.120033 0 3.9360001
-2.113579 0 3.9590001
-2.082567 0 3.9360001
-2.063834 0 3.9360001
-2.0570514 0 3.9590001
-2.050565 0 3.9830003
-2.0433395 0 4.006
-2.0242736 0 4.006
-2.0052073 0 4.006
-1.9628389 0 3.9590001
-1.9439963 0 3.9590001
-1.9251539 0 3.9590001
-1.9178678 0 3.9830003
-1.9098762 0 4.006
-1.9139379 0 4.0550003
-1.9175329 0 4.1040001
-1.9215866 0 4.1550002
-1.9132543 0 4.1800003
-1.8933599 0 4.1800003
-1.8734655 0 4.1800003
-1.8535712 0 4.1800003
-1.8336769 0 4.1800003
-1.8029344 0 4.1550002
-1.772001 0 4.1290002
-1.7523494 0 4.1290002
-1.7436084 0 4.1550002
-1.7342051 0 4.1800003
-1.7253841 0 4.2070003
-1.7159007 0 4.2330003
-1.7065704 0 4.2600002
-1.6969831 0 4.2870002
-1.6871387 0 4.3140001
-1.6774237 0 4.342
-1.6678239 0 4.3710003
-1.6470203 0 4.3710003
-1.6366343 0 4.3990002
-1.6370003 0 4.4570003
-1.6487777 0 4.5480003
-1.6607622 0 4.6420002
-1.6732638 0 4.7400002
-1.6621965 0 4.7730002
-1.6631806 0 4.842
-1.6519911 0 4.8770003
-1.6408025 0 4.9130001
-1.6292713 0 4.9490004
-1.6057168 0 4.9490004
-1.6058198 0 5.0230002
-1.5819134 0 5.0230002
-1.5697933 0 5.0610003
-1.5573119 0 5.0990005
-1.5330436 0 5.0990005
-1.5087754 0 5.0990005
-1.4734439 0 5.0610003
-0 -0 0
-0 -0 0
-0 -0 0
-0 -0 0
-0 -0 0
-0 -0 0
-0.69224948 0 2.6850002
-0.67390305 0 2.6630001
-0.65328306 0 2.631
-0.63954335 0 2.6260002
-0.62561244 0 2.6200001
-0.61244071 0 2.6170001
-0.59975606 0 2.6160002
-0.58730543 0 2.6160002
-0.57485485 0 2.6160002
-0.5630492 0 2.6190002
-0.55142516 0 2.6230001
-0.53955764 0 2.6260002
-0.53247857 0 2.6530001
-0.51848018 0 2.6460001
-0.50894582 0 2.6620002
-0.49925917 0 2.6780002
-0.48869345 0 2.6900001
-0.4767752 0 2.6950002
-0.46446508 0 2.6980002
-0.45179155 0 2.6990001
-0.43894589 0 2.6990001
-0.4257845 0 2.697
-0.4123359 0 2.6930001
-0.39892539 0 2.6890001
-0.38354263 0 2.6710002
-0.36944187 0 2.661
-0.35530224 0 2.6500001
-0.34178457 0 2.6430001
-0.3284581 0 2.6370001
-0.31518877 0 2.631
-0.30186149 0 2.6240001
-0.2888214 0 2.6190002
-0.2758289 0 2.6140001
-0.26298475 0 2.6100001
-0.24989067 0 2.6030002
-0.23704572 0 2.598
-0.22312409 0 2.5800002
-0.20978241 0 2.5670002
-0.19748805 0 2.5660002
-0.18332587 0 2.539
-0 -0 0
-0 -0 0
-0 -0 0
-0 -0 0
-0 -0 0
-0 -0 0
-0 -0 0
-0 -0 0
-0.039472293 0 1.3440001
-0.033075646 0 1.3440001
-0.026659142 0 1.3430001
-0.020252161 0 1.342
-0.013844368 0 1.34
-0.0074611851 0 1.3390001
-0.0010875198 0 1.3380001
0.005276626 0 1.337
0.011631254 0 1.3360001
0.017976362 0 1.335
0.024330176 0 1.335
0.030683991 0 1.335
0.037037805 0 1.335
0.043391619 0 1.335
0.049745433 0 1.335
0.056099247 0 1.335
0.062453065 0 1.335
0.068755336 0 1.3340001
0.075104393 0 1.3340001
0.081514508 0 1.335
0.087868318 0 1.335
0.094222128 0 1.335
0.10057595 0 1.335
0.10692976 0 1.335
0.11336844 0 1.3360001
0.11972702 0 1.3360001
0.12617995 0 1.337
0.1325433 0 1.337
0.13890663 0 1.337
0.14526995 0 1.337
0.15163329 0 1.337
0.15811479 0 1.3380001
0.16448289 0 1.3380001
0.17085099 0 1.3380001
0.17721908 0 1.3380001
0.18372437 0 1.3390001
0.19009724 0 1.3390001
0.1964701 0 1.3390001
0.20284294 0 1.3390001
0.20937203 0 1.34
0.21591066 0 1.3410001
0.22229302 0 1.3410001
0.2286754 0 1.3410001
0.23505777 0 1.3410001
0.24162018 0 1.342
0.24819212 0 1.3430001
0.25477359 0 1.3440001
0.26117024 0 1.3440001
0.26756686 0 1.3440001
0.27416736 0 1.345
0.28056878 0 1.345
0.28718352 0 1.3460001
0.29380783 0 1.3470001
0.30021876 0 1.3470001
0.30685732 0 1.348
0.31327301 0 1.348
0.31992587 0 1.3490001
0.32658818 0 1.35
0.33326009 0 1.3510001
0.3399415 0 1.3520001
0.34688863 0 1.3540001
0.3535938 0 1.355
0.3603085 0 1.3560001
0.3670328 0 1.3570001
0.37376651 0 1.358
0.38050982 0 1.3590001
0.38726258 0 1.36
0.39344588 0 1.3590001
0 -0 0
0 -0 0
0 -0 0
0 -0 0
0 -0 0
0 -0 0
0 -0 0
1.0594151 0 3.2340002
1.0744746 0 3.233
1.0898619 0 3.233
1.0956768 0 3.2050002
1.1098908 0 3.2020001
1.1135348 0 3.1690001
1.1293297 0 3.1710002
1.1372037 0 3.1510003
1.1511037 0 3.1480002
1.1594187 0 3.1300001
1.1743156 0 3.1300001
1.1694558 0 3.0780001
1.1506363 0 2.9910002
1.1348833 0 2.914
1.1124842 0 2.822
1.0999818 0 2.7570002
1.0876679 0 2.6940002
1.0829245 0 2.651
1.078185 0 2.6090002
1.0926924 0 2.6140001
1.0848403 0 2.5660002
1.0970529 0 2.5660002
1.1062394 0 2.559
1.118856 0 2.5600002
1.1288309 0 2.5550001
1.139205 0 2.5510001
1.1499921 0 2.5480001
1.1612068 0 2.546
1.1728636 0 2.5450001
1.1840451 0 2.5430002
1.1952075 0 2.5410001
1.2054007 0 2.5370002
1.2145959 0 2.5310001
1.219857 0 2.5170002
1.2298788 0 2.513
1.2423334 0 2.5140002
1.2338425 0 2.473
1.2496421 0 2.4810002
1.2558573 0 2.47
1.2706922 0 2.4760001
1.2876562 0 2.4860001
1.3000109 0 2.4870002
1.3123749 0 2.4880002
1.3231518 0 2.4860001
1.3349838 0 2.4860001
1.3484409 0 2.4890001
0 -0 0
1.329685 0 2.4120002
1.3394964 0 2.4090002
1.3279691 0 2.368
1.3358462 0 2.3620002
1.3442361 0 2.3570001
1.3525788 0 2.352
1.3620335 0 2.3490002
1.3708748 0 2.345
1.380857 0 2.3430002
1.3860673 0 2.3330002
1.4001652 0 2.3380001
1.4100856 0 2.3360002
1.4199867 0 2.3340001
1.4292556 0 2.3310001
1.439114 0 2.329
1.4483308 0 2.3260002
1.4587736 0 2.325
1.4565634 0 2.3040001
1.468166 0 2.3050001
1.4913288 0 2.3240001
1.5023898 0 2.3240001
1.5121481 0 2.322
1.5218875 0 2.3200002
1.5058388 0 2.279
1.5166855 0 2.279
1.5255213 0 2.276
1.516103 0 2.2460001
1.526113 0 2.2450001
1.5176306 0 2.217
1.5171535 0 2.2010002
1.529711 0 2.204
1.5395019 0 2.2030001
1.5464692 0 2.1980002
1.5533886 0 2.1930001
1.5602605 0 2.1880002
1.5742633 0 2.1930001
1.5825329 0 2.1900001
1.5907738 0 2.187
1.5989863 0 2.184
1.6056964 0 2.1790001
1.6138422 0 2.1760001
1.6047919 0 2.1500001
1.612771 0 2.1470001
1.6222337 0 2.1460001
1.6332079 0 2.1470001
1.6449574 0 2.1490002
1.6567258 0 2.151
1.6685132 0 2.1530001
1.6982536 0 2.1780002
1.7337232 0 2.21
1.7908071 0 2.2690001
1.8913294 0 2.3820002
1.9386108 0 2.427
2.0023911 0 2.4920001
2.0449667 0 2.5300002
2.057008 0 2.5300002
2.0715027 0 2.5330002
2.0843809 0 2.5340002
2.1014051 0 2.5400002
2.1118298 0 2.5380001
2.1372986 0 2.5540001
2.1376719 0 2.5400002
2.1472216 0 2.5370002
2.1320603 0 2.5050001
2.1414151 0 2.5020001
2.1240613 0 2.4680002
2.1332114 0 2.4650002
2.1440732 0 2.4640002
2.1549253 0 2.4630001
2.1666477 0 2.4630001
2.1792548 0 2.4640002
2.196317 0 2.47
2.2286336 0 2.493
2.2387016 0 2.4910002
2.2523642 0 2.493
0 -0 0
0 -0 0
0 -0 0
0 -0 0
0 -0 0
0 -0 0
0 -0 0
0 -0 0
0 -0 0
0 -0 0
0 -0 0
0 -0 0
0 -0 0
0 -0 0
0 -0 0
0 -0 0
0 -0 0
0 -0 0
-0 -0 0
-0 -0 0
-0 -0 0
-0 -0 0
-0 -0 0
-0 -0 0
-2.9288487 0 2.9420002
-2.9534867 0 2.9810002
-2.9353549 0 2.9770002
-2.9192235 0 2.9750001
-2.903111 0 2.973
-2.8831313 0 2.9670002
-2.8748116 0 2.973
-2.8664353 0 2.9790001
-2.854172 0 2.9810002
-2.8618963 0 3.0040002
-2.8333797 0 2.9890001
-0 -0 0
-0 -0 0
-0 -0 0
-0 -0 0
-0 -0 0
-0 -0 0
-0 -0 0
-0 -0 0
-3.0248475 0 3.3420002
-3.0071409 0 3.3400002
-2.9948268 0 3.3440001
-2.9824746 0 3.348
-2.9718566 0 3.3540001
-2.9902642 0 3.3930001
-2.9714859 0 3.3900001
-2.9945819 0 3.4350002
-2.9877706 0 3.4460001
-3.0101717 0 3.4910002
-3.0227118 0 3.5250001
-3.0408976 0 3.5660002
-3.0298612 0 3.5730002
-3.0145426 0 3.5750003
-3.0193276 0 3.6010001
-3.0030229 0 3.6020002
-2.9941688 0 3.6120002
-2.9736812 0 3.6080003
-2.9868281 0 3.6450002
-2.9605186 0 3.6340001
-2.9497023 0 3.6420002
-2.9355891 0 3.6460001
-2.9286413 0 3.6590002
-2.9056573 0 3.6520002
-2.918329 0 3.6900001
-2.9015529 0 3.6910002
-2.8800793 0 3.6860001
-2.8640893 0 3.6880002
-2.8480802 0 3.6900001
-2.8596671 0 3.7280002
-2.8434486 0 3.7300003
-2.8484228 0 3.7600002
-2.8628979 0 3.8030002
-2.8605065 0 3.8240001
-2.875011 0 3.8680003
-2.8735876 0 3.8910003
-2.8712113 0 3.9130001
-2.8365498 0 3.8910003
-2.8013735 0 3.8680003
-2.7671354 0 3.8460002
-2.7180974 0 3.8030002
-2.6694689 0 3.7600002
-2.6311226 0 3.7310002
-2.6147661 0 3.7330003
-2.568476 0 3.6920002
-2.5509043 0 3.6920002
-2.5559759 0 3.7250001
-2.5402915 0 3.7280002
-2.5584109 0 3.7810001
-2.555197 0 3.8030002
-2.537097 0 3.8030002
-2.518997 0 3.8030002
-2.5008969 0 3.8030002
-2.4827969 0 3.8030002
-2.4646969 0 3.8030002
-2.4465966 0 3.8030002
-2.4419069 0 3.8240001
-2.4376507 0 3.8460002
-2.4476535 0 3.8910003
-2.4291348 0 3.8910003
-2.4242456 0 3.9130001
-2.4197617 0 3.9360001
-2.4150593 0 3.9590001
-2.410743 0 3.9830003
-2.4055974 0 4.006
-2.3865314 0 4.006
-2.3816488 0 4.0300002
-2.3624682 0 4.0300002
-2.3578246 0 4.0550003
-2.3523657 0 4.079
-2.332952 0 4.079
-2.3135383 0 4.079
-2.2806268 0 4.0550003
-2.2613273 0 4.0550003
-2.2282052 0 4.0300002
-2.2090249 0 4.0300002
-2.1768031 0 4.006
-2.1453485 0 3.9830003
-2.113579 0 3.9590001
-2.082567 0 3.9360001
-2.063834 0 3.9360001
-2.0570514 0 3.9590001
-2.038209 0 3.9590001
-2.0193663 0 3.9590001
-2.0126514 0 3.9830003
-1.9936947 0 3.9830003
-1.9628389 0 3.9590001
-1.9439963 0 3.9590001
-1.9251539 0 3.9590001
-1.9063114 0 3.9590001
-1.898911 0 3.9830003
-1.9139379 0 4.0550003
-1.9175329 0 4.1040001
-1.9095622 0 4.1290002
-1.9018112 0 4.1550002
-1.882036 0 4.1550002
-1.8622605 0 4.1550002
-1.8535712 0 4.1800003
-1.8227099 0 4.1550002
-1.8029344 0 4.1550002
-1.772001 0 4.1290002
-1.7523494 0 4.1290002
-1.7326977 0 4.1290002
-1.7130462 0 4.1290002
-1.7040578 0 4.1550002
-1.6944164 0 4.1800003
-1.6853384 0 4.2070003
-1.6756076 0 4.2330003
-1.6660202 0 4.2600002
-1.6561759 0 4.2870002
-1.6460745 0 4.3140001
-1.6255424 0 4.3140001
-1.6154276 0 4.342
-1.6054136 0 4.3710003
-1.6157876 0 4.4570003
-1.6160411 0 4.5170002
-1.6273726 0 4.6100001
-1.6277198 0 4.6740003
-1.6168095 0 4.7070003
-1.6167631 0 4.7730002
-1.6057354 0 4.8080001
-1.5940454 0 4.842
-1.5823562 0 4.8770003
-1.5706534 0 4.9130001
-1.5586083 0 4.9490004
-1.5465302 0 4.9860001
-1.5341003 0 5.0230002
-1.5101938 0 5.0230002
-1.4862871 0 5.0230002
-1.4734439 0 5.0610003
-0 -0 0
-0 -0 0
-0 -0 0
-0 -0 0
-0 -0 0
-0 -0 0
-0.69147605 0 2.6820002
-0.67314386 0 2.6600001
-0.65353143 0 2.6320002
-0.63929987 0 2.6250002
-0.62585121 0 2.6210001
-0.61267471 0 2.618
-0.5999853 0 2.6170001
-0.58730543 0 2.6160002
-0.57507461 0 2.6170001
-0.56326413 0 2.6200001
-0.55142516 0 2.6230001
-0.53955764 0 2.6260002
-0.53288001 0 2.6550002
-0.52102751 0 2.6590002
-0.5099017 0 2.6670001
-0.49720842 0 2.6670001
-0.48869345 0 2.6900001
-0.47889811 0 2.707
-0.46429288 0 2.697
-0.45162418 0 2.6980002
-0.4386206 0 2.697
-0.42531091 0 2.6940002
-0.41218281 0 2.6920002
-0.39684844 0 2.6750002
-0.38339901 0 2.6700001
-0.36930305 0 2.6600001
-0.35557041 0 2.6520002
-0.34204322 0 2.6450002
-0.32858264 0 2.638
-0.31530857 0 2.6320002
-0.30197653 0 2.6250002
-0.2888214 0 2.6190002
-0.2759344 0 2.615
-0.26298475 0 2.6100001
-0.24979468 0 2.6020002
-0.23695448 0 2.5970001
-0.2230376 0 2.5790002
-0.21010929 0 2.5710001
-0.19564092 0 2.5420001
-0.18318146 0 2.5370002
-0 -0 0
-0 -0 0
-0 -0 0
-0 -0 0
-0 -0 0
-0 -0 0
-0 -0 0
-0 -0 0
-0.03950166 0 1.345
-0.033100251 0 1.345
-0.026678994 0 1.3440001
-0.020252161 0 1.342
-0.013844368 0 1.34
-0.0074611851 0 1.3390001
-0.0010875198 0 1.3380001
0.005276626 0 1.337
0.011639959 0 1.337
0.017989827 0 1.3360001
0.024330176 0 1.335
0.030683991 0 1.335
0.037037805 0 1.335
0.043391619 0 1.335
0.049745433 0 1.335
0.056099247 0 1.335
0.062453065 0 1.335
0.068806872 0 1.335
0.07516069 0 1.335
0.081514508 0 1.335
0.087868318 0 1.335
0.094222128 0 1.335
0.10065129 0 1.3360001
0.10700987 0 1.3360001
0.11336844 0 1.3360001
0.11972702 0 1.3360001
0.12617995 0 1.337
0.1325433 0 1.337
0.13890663 0 1.337
0.14526995 0 1.337
0.15163329 0 1.337
0.15811479 0 1.3380001
0.16448289 0 1.3380001
0.17085099 0 1.3380001
0.17721908 0 1.3380001
0.18372437 0 1.3390001
0.19009724 0 1.3390001
0.1964701 0 1.3390001
0.20284294 0 1.3390001
0.20937203 0 1.34
0.21591066 0 1.3410001
0.22229302 0 1.3410001
0.2286754 0 1.3410001
0.23505777 0 1.3410001
0.24162018 0 1.342
0.24819212 0 1.3430001
0.25477359 0 1.3440001
0.26117024 0 1.3440001
0.26756686 0 1.3440001
0.27416736 0 1.345
0.28077739 0 1.3460001
0.28739691 0 1.3470001
0.29380783 0 1.3470001
0.30044162 0 1.348
0.30685732 0 1.348
0.31350541 0 1.3490001
0.32016301 0 1.35
0.32683012 0 1.3510001
0.33350679 0 1.3520001
0.3399415 0 1.3520001
0.34688863 0 1.3540001
0.3535938 0 1.355
0.3603085 0 1.3560001
0.3670328 0 1.3570001
0.37376651 0 1.358
0.38078979 0 1.36
0.38726258 0 1.36
0.39431441 0 1.3620001
0 -0 0
0 -0 0
0 -0 0
0 -0 0
0 -0 0
0 -0 0
0 -0 0
1.0685875 0 3.2620001
1.0837803 0 3.2610002
1.0898619 0 3.233
1.1045653 0 3.2310002
1.1102374 0 3.2030001
1.1240764 0 3.1990001
1.1353841 0 3.1880002
1.1465871 0 3.177
1.1602452 0 3.1730001
1.1753467 0 3.1730001
1.1754411 0 3.1330001
1.1664163 0 3.0700002
1.1610233 0 3.0180001
1.1446198 0 2.9390001
1.1215513 0 2.845
1.1015776 0 2.7610002
1.0892829 0 2.6980002
1.08415 0 2.654
1.078185 0 2.6090002
1.0906023 0 2.6090002
1.0890681 0 2.5760002
1.0991905 0 2.5710001
1.1088332 0 2.5650001
1.11973 0 2.562
1.1301563 0 2.5580001
1.1400981 0 2.5530002
1.1508949 0 2.5500002
1.1616631 0 2.5470002
1.1733245 0 2.546
1.1840451 0 2.5430002
1.1942667 0 2.539
1.2044504 0 2.5350001
1.2126764 0 2.5270002
1.219857 0 2.5170002
1.2298788 0 2.513
1.2418392 0 2.513
1.2528018 0 2.5110002
1.2632416 0 2.5080001
1.2736529 0 2.5050001
1.2835224 0 2.5010002
1.290764 0 2.4920001
1.301579 0 2.49
1.3134298 0 2.49
1.3242164 0 2.4880002
1.3355209 0 2.4870002
1.3484409 0 2.4890001
0 -0 0
1.329685 0 2.4120002
1.3400524 0 2.4100001
1.3279691 0 2.368
1.3364117 0 2.3630002
1.343666 0 2.3560002
1.3525788 0 2.352
1.3614535 0 2.348
1.3708748 0 2.345
1.3796782 0 2.3410001
1.384879 0 2.3310001
1.3983685 0 2.335
1.4082747 0 2.3330002
1.4181615 0 2.3310001
1.4280293 0 2.329
1.4378783 0 2.3270001
1.447708 0 2.325
1.4575188 0 2.3230002
1.4666784 0 2.3200002
1.4770832 0 2.319
1.4740027 0 2.2970002
1.4784704 0 2.2870002
1.4867502 0 2.283
1.4956481 0 2.2800002
1.5058388 0 2.279
1.5106961 0 2.2700002
1.5168079 0 2.263
1.5188031 0 2.25
1.5281523 0 2.2480001
1.5189997 0 2.2190001
1.527493 0 2.2160001
1.5380398 0 2.2160001
1.5402007 0 2.204
1.5464692 0 2.1980002
1.5533886 0 2.1930001
1.5609735 0 2.1890001
1.565649 0 2.181
1.5825329 0 2.1900001
1.5907738 0 2.187
1.5989863 0 2.184
1.6064333 0 2.1800001
1.6138422 0 2.1760001
1.6055382 0 2.151
1.61202 0 2.1460001
1.6222337 0 2.1460001
1.6332079 0 2.1470001
1.6441919 0 2.148
1.6559556 0 2.1500001
1.6692882 0 2.154
1.6982536 0 2.1780002
1.7274473 0 2.2020001
1.7884394 0 2.266
1.8929173 0 2.3840001
1.9434035 0 2.4330001
2.0056052 0 2.4960001
2.0417333 0 2.526
2.0561948 0 2.529
2.0698669 0 2.5310001
2.0802679 0 2.529
2.0923045 0 2.529
2.1035089 0 2.5280001
2.1180513 0 2.5310001
2.1359887 0 2.5380001
2.1192915 0 2.5040002
2.1295068 0 2.5020001
2.1388474 0 2.4990001
2.1257825 0 2.47
2.1349421 0 2.467
2.1458135 0 2.4660001
2.1566751 0 2.4650002
2.1692867 0 2.4660001
2.1801391 0 2.4650002
2.1989844 0 2.473
2.226846 0 2.4910002
2.2378027 0 2.49
2.2505572 0 2.4910002
2.2651377 0 2.4940002
0 -0 0
0 -0 0
0 -0 0
0 -0 0
0 -0 0
0 -0 0
0 -0 0
0 -0 0
0 -0 0
0 -0 0
0 -0 0
0 -0 0
0 -0 0
0 -0 0
0 -0 0
0 -0 0
0 -0 0
-0 -0 0
-0 -0 0
-0 -0 0
-0 -0 0
-0 -0 0
-0 -0 0
-0 -0 0
-2.9524958 0 2.9800003
-2.9353549 0 2.9770002
-2.9084299 0 2.9640002
-2.8943229 0 2.9640002
-2.8841028 0 2.9680002
-2.8738449 0 2.9720001
-2.864511 0 2.9770002
-2.8532147 0 2.9800003
-2.8647542 0 3.0070002
-0 -0 0
-0 -0 0
-0 -0 0
-0 -0 0
-0 -0 0
-0 -0 0
-0 -0 0
-0 -0 0
-0 -0 0
-3.0520005 0 3.3720002
-3.0368524 0 3.3730001
-3.0225899 0 3.3750002
-3.0074177 0 3.3760002
-3.0170457 0 3.4050002
-2.9937894 0 3.3970001
-3.0144365 0 3.4390001
-2.9954536 0 3.4360001
-3.0276537 0 3.4920001
-3.0101717 0 3.4910002
-3.0227118 0 3.5250001
-3.0417502 0 3.5670002
-3.0281653 0 3.5710001
-3.0136993 0 3.5740001
-3.0201664 0 3.6020002
-3.0046902 0 3.6040001
-2.9949977 0 3.6130002
-3.0050004 0 3.6460001
-2.9876475 0 3.6460001
-2.9613333 0 3.6350002
-2.9553716 0 3.6490002
-2.9388096 0 3.6500001
-2.9294417 0 3.6600001
-2.9303219 0 3.6830001
-2.9143748 0 3.6850002
-2.8984087 0 3.6870003
-2.9113336 0 3.7260001
-2.8943765 0 3.7270002
-2.8781817 0 3.7290001
-2.8842137 0 3.7600002
-2.8823268 0 3.7810001
-2.8809977 0 3.8030002
-2.8787065 0 3.8240001
-2.8769634 0 3.8460002
-2.8921063 0 3.8910003
-2.8898351 0 3.9130001
-2.8712113 0 3.9130001
-2.8525877 0 3.9130001
-2.8180311 0 3.8910003
-2.7671354 0 3.8460002
-2.7180974 0 3.8030002
-2.6843781 0 3.7810001
-2.6515734 0 3.7600002
-2.6154664 0 3.7340002
-2.6004777 0 3.7380002
-2.5826869 0 3.7380002
-2.5799918 0 3.7600002
-2.5764062 0 3.7810001
-2.573297 0 3.8030002
-2.5693066 0 3.8240001
-2.5511067 0 3.8240001
-2.5474789 0 3.8460002
-2.5291741 0 3.8460002
-2.5108695 0 3.8460002
-2.4925649 0 3.8460002
-2.4742601 0 3.8460002
-2.4700041 0 3.8680003
-2.4661725 0 3.8910003
-2.4476535 0 3.8910003
-2.4428692 0 3.9130001
-2.4384949 0 3.9360001
-2.4339015 0 3.9590001
-2.4296999 0 3.9830003
-2.4246638 0 4.006
-2.4055974 0 4.006
-2.4008293 0 4.0300002
-2.3964233 0 4.0550003
-2.3911929 0 4.079
-2.3863161 0 4.1040001
-2.3667834 0 4.1040001
-2.3615491 0 4.1290002
-2.3418975 0 4.1290002
-2.3081856 0 4.1040001
-2.2886527 0 4.1040001
-2.26912 0 4.1040001
-2.2495875 0 4.1040001
-2.2164702 0 4.079
-2.1841297 0 4.0550003
-2.1386707 0 4.006
-2.1074352 0 3.9830003
-2.063834 0 3.9360001
-2.0570514 0 3.9590001
-2.038209 0 3.9590001
-2.0193663 0 3.9590001
-2.000524 0 3.9590001
-1.9936947 0 3.9830003
-1.9628389 0 3.9590001
-1.9439963 0 3.9590001
-1.9251539 0 3.9590001
-1.9063114 0 3.9590001
-1.898911 0 3.9830003
-1.902138 0 4.0300002
-1.9058521 0 4.079
-1.8980002 0 4.1040001
-1.8899106 0 4.1290002
-1.882036 0 4.1550002
-1.8622605 0 4.1550002
-1.8424852 0 4.1550002
-1.8113042 0 4.1290002
-1.7808045 0 4.1040001
-1.772001 0 4.1290002
-1.7417394 0 4.1040001
-1.7326977 0 4.1290002
-1.7130462 0 4.1290002
-1.7040578 0 4.1550002
-1.7053612 0 4.2070003
-1.6957541 0 4.2330003
-1.6862953 0 4.2600002
-1.6765795 0 4.2870002
-1.6561759 0 4.2870002
-1.6460745 0 4.3140001
-1.6255424 0 4.3140001
-1.6154276 0 4.342
-1.6054136 0 4.3710003
-1.6052742 0 4.428
-1.6053079 0 4.487
-1.605486 0 4.5480003
-1.6054317 0 4.6100001
-1.5944827 0 4.6420002
-1.5832287 0 4.6740003
-1.5720043 0 4.7070003
-1.5604658 0 4.7400002
-1.5486131 0 4.7730002
-1.5370857 0 4.8080001
-1.5249102 0 4.842
-1.5238875 0 4.9130001
-1.5114995 0 4.9490004
-1.4879453 0 4.9490004
-1.4753389 0 4.9860001
-0 -0 0
-0 -0 0
-0 -0 0
-0 -0 0
-0 -0 0
-0 -0 0
-0 -0 0
-0.69044477 0 2.6780002
-0.67238468 0 2.6570001
-0.6552695 0 2.6390002
-0.63929987 0 2.6250002
-0.62561244 0 2.6200001
-0.61244071 0 2.6170001
-0.59975606 0 2.6160002
-0.58730543 0 2.6160002
-0.57529432 0 2.618
-0.56326413 0 2.6200001
-0.55163538 0 2.6240001
-0.53955764 0 2.6260002
-0.5330807 0 2.6560001
-0.52122343 0 2.6600001
-0.5099017 0 2.6670001
-0.49776769 0 2.6700001
-0.49087352 0 2.7020001
-0.4787212 0 2.7060001
-0.46618658 0 2.7080002
-0.45346546 0 2.7090001
-0.438458 0 2.6960001
-0.42515302 0 2.6930001
-0.41187656 0 2.6900001
-0.39625502 0 2.6710002
-0.38282463 0 2.6660001
-0.36930305 0 2.6600001
-0.35570449 0 2.6530001
-0.34217253 0 2.6460001
-0.32883179 0 2.6400001
-0.31554815 0 2.6340001
-0.30232164 0 2.628
-0.28915223 0 2.6220002
-0.27614546 0 2.6170001
-0.26318628 0 2.6120002
-0.24979468 0 2.6020002
-0.23695448 0 2.5970001
-0.22277816 0 2.5760002
-0.20888346 0 2.5560002
-0.19564092 0 2.5420001
-0.18325368 0 2.5380001
-0 -0 0
-0 -0 0
-0 -0 0
-0 -0 0
-0 -0 0
-0 -0 0
-0 -0 0
-0 -0 0
-0.03950166 0 1.345
-0.033100251 0 1.345
-0.026678994 0 1.3440001
-0.020267252 0 1.3430001
-0.0138547 0 1.3410001
-0.0074667567 0 1.34
-0.0010875198 0 1.3380001
0.005276626 0 1.337
0.011639959 0 1.337
0.017989827 0 1.3360001
0.024348402 0 1.3360001
0.030706977 0 1.3360001
0.037065551 0 1.3360001
0.043424122 0 1.3360001
0.049745433 0 1.335
0.056099247 0 1.335
0.062453065 0 1.335
0.068806872 0 1.335
0.07516069 0 1.335
0.081575565 0 1.3360001
0.087934144 0 1.3360001
0.094292715 0 1.3360001
0.10065129 0 1.3360001
0.10700987 0 1.3360001
0.11345328 0 1.337
0.11981662 0 1.337
0.12617995 0 1.337
0.1325433 0 1.337
0.13890663 0 1.337
0.14526995 0 1.337
0.15163329 0 1.337
0.15811479 0 1.3380001
0.16448289 0 1.3380001
0.17085099 0 1.3380001
0.17721908 0 1.3380001
0.18372437 0 1.3390001
0.19009724 0 1.3390001
0.19661681 0 1.34
0.20299441 0 1.34
0.20937203 0 1.34
0.21591066 0 1.3410001
0.22229302 0 1.3410001
0.2286754 0 1.3410001
0.23505777 0 1.3410001
0.24162018 0 1.342
0.2480073 0 1.342
0.25458401 0 1.3430001
0.26117024 0 1.3440001
0.26756686 0 1.3440001
0.27396354 0 1.3440001
0.28056878 0 1.345
0.28718352 0 1.3460001
0.29380783 0 1.3470001
0.30021876 0 1.3470001
0.30685732 0 1.348
0.31350541 0 1.3490001
0.32016301 0 1.35
0.32683012 0 1.3510001
0.33350679 0 1.3520001
0.34019291 0 1.353
0.34688863 0 1.3540001
0.3535938 0 1.355
0.3603085 0 1.3560001
0.3670328 0 1.3570001
0.37376651 0 1.358
0.38050982 0 1.3590001
0.38697785 0 1.3590001
0 -0 0
0 -0 0
0 -0 0
0 -0 0
0 -0 0
0 -0 0
0 -0 0
0 -0 0
1.0790703 0 3.2940001
1.0837803 0 3.2610002
1.0875021 0 3.2260001
1.1049072 0 3.2320001
1.1098908 0 3.2020001
1.1240764 0 3.1990001
1.1364526 0 3.1910002
1.1491135 0 3.1840003
1.1631706 0 3.1810002
1.1760876 0 3.1750002
1.1720645 0 3.1240001
1.1800941 0 3.1060002
1.1717949 0 3.0460002
1.1547458 0 2.9650002
1.1357431 0 2.881
1.1159408 0 2.7970002
1.0917053 0 2.7040002
1.084967 0 2.6560001
1.0790114 0 2.6110001
1.0897663 0 2.6070001
1.0899135 0 2.5780001
1.0996181 0 2.572
1.1092656 0 2.5660002
1.120604 0 2.5640001
1.1305981 0 2.559
1.1400981 0 2.5530002
1.1504434 0 2.549
1.1612068 0 2.546
1.1733245 0 2.546
1.1840451 0 2.5430002
1.1937964 0 2.5380001
1.2035003 0 2.5330002
1.210277 0 2.5220001
1.2188877 0 2.5150001
1.2293894 0 2.5120001
1.2408509 0 2.5110002
1.2523029 0 2.5100002
1.2632416 0 2.5080001
1.2736529 0 2.5050001
1.2835224 0 2.5010002
1.2923179 0 2.4950001
1.3021019 0 2.4910002
1.3134298 0 2.49
1.3236842 0 2.4870002
1.3344469 0 2.4850001
1.3224365 0 2.4410002
1.3335077 0 2.4400001
1.3291335 0 2.411
1.3400524 0 2.4100001
1.3274083 0 2.3670001
1.3369772 0 2.3640001
1.3430955 0 2.355
1.3520037 0 2.3510001
1.3608738 0 2.3470001
1.3697057 0 2.3430002
1.379089 0 2.3400002
1.3866613 0 2.3340001
1.3929788 0 2.3260002
1.4064637 0 2.3300002
1.4163363 0 2.3280001
1.4261899 0 2.3260002
1.4360245 0 2.3240001
1.44584 0 2.322
1.4562639 0 2.3210001
1.4654139 0 2.3180001
1.468166 0 2.3050001
1.4740027 0 2.2970002
1.4881674 0 2.302
1.4906577 0 2.289
1.4956481 0 2.2800002
1.5058388 0 2.279
1.512027 0 2.2720001
1.5181484 0 2.2650001
1.5208282 0 2.253
1.5288321 0 2.2490001
1.5183152 0 2.2180002
1.5288717 0 2.2180002
1.540122 0 2.2190001
1.5402007 0 2.204
1.5464692 0 2.1980002
1.5526804 0 2.1920002
1.5602605 0 2.1880002
1.5742633 0 2.1930001
1.5825329 0 2.1900001
1.5907738 0 2.187
1.5982542 0 2.1830001
1.6056964 0 2.1790001
1.6131006 0 2.1750002
1.6070311 0 2.1530001
1.61202 0 2.1460001
1.6214778 0 2.1450002
1.6332079 0 2.1470001
1.6441919 0 2.148
1.6567258 0 2.151
1.6700633 0 2.1550002
1.6990333 0 2.1790001
1.7313697 0 2.207
1.7876501 0 2.2650001
1.8555989 0 2.3370001
1.945001 0 2.4350002
2.0056052 0 2.4960001
2.0376921 0 2.5210001
2.0464385 0 2.5170002
2.0592356 0 2.5180001
2.0671067 0 2.513
2.0774126 0 2.5110002
2.0876992 0 2.5090001
2.0962934 0 2.5050001
2.1048493 0 2.5010002
2.1091352 0 2.4920001
2.1269536 0 2.4990001
2.1268651 0 2.4850001
2.1283643 0 2.473
2.1375382 0 2.47
2.1484239 0 2.4690001
2.1592999 0 2.4680002
2.1728055 0 2.47
2.1827924 0 2.4680002
2.2069874 0 2.4820001
2.2250578 0 2.4890001
2.2360055 0 2.4880002
2.2514606 0 2.4920001
2.2651377 0 2.4940002
2.2788336 0 2.4960001
2.2897954 0 2.4950001
0 -0 0
0 -0 0
0 -0 0
0 -0 0
0 -0 0
0 -0 0
0 -0 0
0 -0 0
0 -0 0
0 -0 0
0 -0 0
0 -0 0
0 -0 0
0 -0 0
0 -0 0
-0 -0 0
-0 -0 0
-0 -0 0
-0 -0 0
-0 -0 0
-0 -0 0
-2.9975402 0 3.0110002
-2.9505143 0 2.9780002
-2.9392989 0 2.9810002
-2.9202046 0 2.9760001
-2.9050641 0 2.9750001
-2.8831313 0 2.9670002
-2.8728778 0 2.9710002
-2.8635485 0 2.9760001
-2.8848107 0 3.0130002
-2.8638015 0 3.006
-0 -0 0
-0 -0 0
-0 -0 0
-0 -0 0
-0 -0 0
-0 -0 0
-0 -0 0
-0 -0 0
-3.0725985 0 3.3770001
-3.0520005 0 3.3720002
-3.0647628 0 3.404
-3.0494573 0 3.4050002
-3.0341423 0 3.4060001
-3.0427418 0 3.4340003
-3.06165 0 3.4740002
-3.0459921 0 3.4750001
-3.0303252 0 3.4760001
-3.0527976 0 3.5210001
-3.0369017 0 3.5220001
-3.0227118 0 3.5250001
-3.042603 0 3.5680001
-3.0273173 0 3.5700002
-3.0356233 0 3.6000001
-3.0184894 0 3.6000001
-3.0038564 0 3.6030002
-3.0223532 0 3.6460001
-3.0058246 0 3.6470001
-2.9892864 0 3.6480002
-2.962148 0 3.6360002
-2.9569917 0 3.6510003
-2.9428356 0 3.6550002
-2.9262402 0 3.6560001
-2.932709 0 3.6860001
-2.9159567 0 3.6870003
-2.8991947 0 3.6880002
-2.9113336 0 3.7260001
-2.8943765 0 3.7270002
-2.9021089 0 3.7600002
-2.9003222 0 3.7810001
-2.8990979 0 3.8030002
-2.8969064 0 3.8240001
-2.8952682 0 3.8460002
-2.8934205 0 3.8680003
-2.8921063 0 3.8910003
-2.8898351 0 3.9130001
-2.8712113 0 3.9130001
-2.8525877 0 3.9130001
-2.8180311 0 3.8910003
-2.7671354 0 3.8460002
-2.7331066 0 3.8240001
-2.6999974 0 3.8030002
-2.6663828 0 3.7810001
-2.6483874 0 3.7810001
-2.6303921 0 3.7810001
-2.6123967 0 3.7810001
-2.6094971 0 3.8030002
-2.6206977 0 3.8460002
-2.6172793 0 3.8680003
-2.5988698 0 3.8680003
-2.5804605 0 3.8680003
-2.5772858 0 3.8910003
-2.5436416 0 3.8680003
-2.5252323 0 3.8680003
-2.5068228 0 3.8680003
-2.4884133 0 3.8680003
-2.4846914 0 3.8910003
-2.4801164 0 3.9130001
-2.4614925 0 3.9130001
-2.4572279 0 3.9360001
-2.4527442 0 3.9590001
-2.4339015 0 3.9590001
-2.4296999 0 3.9830003
-2.4246638 0 4.006
-2.4200096 0 4.0300002
-2.4157228 0 4.0550003
-2.4106066 0 4.079
-2.4058485 0 4.1040001
-2.4008527 0 4.1290002
-2.381201 0 4.1290002
