# .PCD v0.7 - Point Cloud Data file format
VERSION 0.7
FIELDS x y z
SIZE 4 4 4
TYPE F F F
COUNT 1 1 1
WIDTH 2250
HEIGHT 1
VIEWPOINT 0 0 0 1 0 0 0
POINTS 2250
DATA ascii
0.65698135 0 2.3870001
0 -0 0
0 -0 0
0 -0 0
0 -0 0
0 -0 0
0.86488885 0 2.8470001
0.87905604 0 2.8490002
0.89324218 0 2.8510001
0.90490276 0 2.845
0.92167163 0 2.855
0.93558735 0 2.8560002
0.96014762 0 2.8890002
0.9823252 0 2.914
1.0047407 0 2.9390001
1.0277408 0 2.9650002
1.055908 0 3.0050001
1.0798258 0 3.0320001
1.1040007 0 3.0590003
1.1298953 0 3.0900002
1.1590483 0 3.1290002
1.1739404 0 3.1290002
1.1895925 0 3.131
1.2052636 0 3.1330001
1.2205642 0 3.1340001
1.2496722 0 3.1700001
1.2659564 0 3.1730001
1.2822692 0 3.1760001
1.2986107 0 3.1790001
1.3153938 0 3.1830001
1.3476818 0 3.2240002
1.3807827 0 3.2660003
1.4078703 0 3.2930002
1.4265691 0 3.3000002
1.4470828 0 3.3110001
1.4623994 0 3.3100002
1.4821723 0 3.3190002
1.49842 0 3.3200002
1.5123968 0 3.3160002
1.525414 0 3.3100002
1.540702 0 3.3090003
1.5564508 0 3.3090003
1.572675 0 3.3100002
1.5898682 0 3.3130002
1.6041821 0 3.3100002
1.6209147 0 3.3120003
1.6381602 0 3.3150001
1.6559335 0 3.3190002
1.6732411 0 3.3220003
1.6910857 0 3.3260002
1.7048626 0 3.3220003
1.7211913 0 3.3230002
1.7547795 0 3.3570001
1.7712842 0 3.3580003
1.8032336 0 3.3880002
1.8204324 0 3.3900001
1.8539031 0 3.4220002
1.8712829 0 3.4240003
1.8886818 0 3.4260001
1.9060994 0 3.4280002
1.9240972 0 3.4310002
1.9421235 0 3.4340003
1.9601781 0 3.4370003
1.9863126 0 3.4540002
2.0044911 0 3.4570003
2.0256209 0 3.4650002
2.0415232 0 3.4640002
2.0556333 0 3.4600003
2.0703042 0 3.4570003
2.0813248 0 3.4480002
2.0873926 0 3.4310002
2.1000431 0 3.4250002
2.1101651 0 3.4150002
2.1245506 0 3.4120002
2.1320055 0 3.3980002
2.127948 0 3.3660002
2.1414206 0 3.3620002
2.127903 0 3.3160002
2.1191194 0 3.2780001
2.1327672 0 3.2750001
2.1536021 0 3.2830002
2.1639411 0 3.2750001
0 -0 0
0 -0 0
0 -0 0
0 -0 0
0 -0 0
0 -0 0
0 -0 0
1.9385287 0 2.7740002
1.9130343 0 2.7190001
1.9018917 0 2.6850002
1.8947037 0 2.6570001
1.8829424 0 2.6230001
1.8759158 0 2.5960002
1.8737236 0 2.5760002
1.8845196 0 2.5740001
1.8952965 0 2.572
1.9075377 0 2.572
1.9242574 0 2.5780001
1.9755883 0 2.6300001
2.0296819 0 2.6850002
2.0919061 0 2.7500002
2.1578107 0 2.8190002
2.2143593 0 2.8750002
2.2450917 0 2.8970001
2.2861705 0 2.9320002
2.3016942 0 2.9340003
2.3172367 0 2.9360001
2.3327982 0 2.9380002
2.3459826 0 2.937
2.3591576 0 2.9360001
2.3715148 0 2.9340003
2.3505177 0 2.891
2.3389251 0 2.8600001
2.3229246 0 2.8240001
2.3082364 0 2.7900002
2.2973845 0 2.7610002
2.2870936 0 2.733
2.2790611 0 2.7080002
2.2936423 0 2.71
2.3048382 0 2.7080002
2.3168707 0 2.707
2.3314755 0 2.7090001
2.3694656 0 2.7380002
2.3781459 0 2.733
2.4130263 0 2.7580001
2.4463854 0 2.7810001
2.490577 0 2.8160002
2.5466607 0 2.8640001
2.6049893 0 2.914
2.6763763 0 2.9780002
2.751986 0 3.0460002
2.8300598 0 3.1160002
2.8978438 0 3.1740003
2.9469068 0 3.2110002
2.9658794 0 3.2150002
2.9987993 0 3.2340002
3.0169871 0 3.2370002
0 -0 0
0 -0 0
0 -0 0
0 -0 0
0 -0 0
0 -0 0
0 -0 0
0 -0 0
0 -0 0
0 -0 0
0 -0 0
0 -0 0
-0 0 0
-0 0 0
-0 0 0
-0 0 0
-0 0 0
-0 0 0
-0 0 0
-0 0 0
-0 0 0
-2.2058537 0 2.2480001
-2.1961308 0 2.2490001
-2.1873705 0 2.2510002
-2.1805248 0 2.2550001
-2.1726789 0 2.2580001
-2.1657622 0 2.2620001
-2.1578543 0 2.2650001
-2.1556058 0 2.2740002
-2.1457262 0 2.2750001
-2.1348984 0 2.2750001
-2.1175351 0 2.2680001
-2.106741 0 2.2680001
-2.0950224 0 2.2670002
-2.0823939 0 2.2650001
-2.0697846 0 2.263
-2.0590141 0 2.263
-2.0473385 0 2.2620001
-2.0428751 0 2.2690001
-2.0329716 0 2.2700002
-2.0221677 0 2.2700002
-2.0095918 0 2.2680001
-2.0058477 0 2.276
-1.9958919 0 2.2770002
-1.9815675 0 2.273
-1.9716165 0 2.2740002
-1.9607936 0 2.2740002
-1.9516857 0 2.276
-1.9425588 0 2.2780001
-1.9325647 0 2.279
-1.9234047 0 2.2810001
-1.9150639 0 2.2840002
-1.9083617 0 2.289
-1.8991253 0 2.2910001
-1.88987 0 2.2930002
-1.8822343 0 2.2970002
-1.873746 0 2.3000002
-1.8644192 0 2.302
-1.8558785 0 2.3050001
-1.8473091 0 2.3080001
-1.8371201 0 2.309
-1.8277124 0 2.3110001
-1.8182857 0 2.3130002
-1.8041517 0 2.309
-1.7962687 0 2.3130002
-1.7852601 0 2.3130002
-1.7757857 0 2.3150001
-1.7647676 0 2.3150001
-0 0 0
-0 0 0
-0 0 0
-0 0 0
-0 0 0
-0 0 0
-0 0 0
-0 0 0
-0 0 0
-0 0 0
-0 0 0
-0 0 0
-0 0 0
-0.56907189 0 0.81800002
-0.56586963 0 0.81900007
-0.56197166 0 0.81900007
-0.5580737 0 0.81900007
-0.55417573 0 0.81900007
-0.55027777 0 0.81900007
-0.54637986 0 0.81900007
-0.5424819 0 0.81900007
-0.53858387 0 0.81900007
-0.53468597 0 0.81900007
-0.530788 0 0.81900007
-0.52689004 0 0.81900007
-0.52299207 0 0.81900007
-0.51972795 0 0.82000005
-0.51645422 0 0.82100004
-0.51254678 0 0.82100004
-0.50925887 0 0.82200003
-0.50596136 0 0.82300001
-0.50265443 0 0.82400006
-0.49933791 0 0.82500005
-0.49601188 0 0.82600003
-0.49267638 0 0.82700002
-0.48933133 0 0.82800007
-0.48597673 0 0.82900006
-0.48261267 0 0.83000004
-0.47923902 0 0.83100003
-0.47585589 0 0.83200002
-0.47246325 0 0.83300006
-0.46906111 0 0.83400005
-0.4656494 0 0.83500004
-0.46222818 0 0.83600003
-0.45879745 0 0.83700001
-0.45535722 0 0.83800006
-0.45190746 0 0.83900005
-0.44844821 0 0.84000003
-0.44497937 0 0.84100002
-0.44150108 0 0.84200007
-0.43801326 0 0.84300005
-0.43400106 0 0.84300005
-0.43049893 0 0.84400004
-0.42698732 0 0.84500003
-0.42296559 0 0.84500003
-0.41943967 0 0.84600002
-0.41590425 0 0.84700006
-0.41235933 0 0.84800005
-0.40880486 0 0.84900004
-0.40524083 0 0.85000002
-0.40166733 0 0.85100001
-0.39808434 0 0.85200006
-0.39449179 0 0.85300004
-0.39088973 0 0.85400003
-0.38727814 0 0.85500002
-0.38365704 0 0.85600007
-0.38002643 0 0.85700005
-0.37638631 0 0.85800004
-0.37273663 0 0.85900003
-0.36950663 0 0.86100006
-0.36583319 0 0.86200005
-0.36215019 0 0.86300004
-0.35887259 0 0.86500007
-0.35516584 0 0.86600006
-0.35185489 0 0.86800003
-0.34812433 0 0.86900002
-0.34438425 0 0.87000006
-0.34102571 0 0.87200004
-0.33726183 0 0.87300003
-0.33387002 0 0.87500006
-0.33008233 0 0.87600005
-0.32628512 0 0.87700003
-0.32247838 0 0.87800002
-0.3186622 0 0.87900007
-0.31483644 0 0.88000005
-0.31100115 0 0.88100004
-0.30715635 0 0.88200003
-0.30330205 0 0.88300002
-0.29943821 0 0.88400006
-0.29556486 0 0.88500005
-0.291682 0 0.88600004
-0.28778961 0 0.88700002
-0.28388771 0 0.88800007
-0.27997631 0 0.88900006
-0.27605534 0 0.89000005
-0.27212489 0 0.89100003
-0.26848558 0 0.89300007
-0.26453131 0 0.89400005
-0.26085865 0 0.89600003
-0.25688061 0 0.89700001
-0.25317466 0 0.89900005
-0.24944966 0 0.90100002
-0.24570565 0 0.90300006
-0.24167521 0 0.90400004
-0.2376353 0 0.90500003
-0.23384368 0 0.90700006
-0.22977994 0 0.90800005
-0.22595499 0 0.91000003
-0.22211103 0 0.91200006
-0.21824799 0 0.91400003
-0.21413192 0 0.91500002
-0.21000634 0 0.91600007
-0.20587121 0 0.91700006
-0.20172659 0 0.91800004
-0.19757243 0 0.91900003
-0.19319852 0 0.91900003
-0.18903008 0 0.92000002
-0.18485215 0 0.92100006
-0.18086062 0 0.92300004
-0.17665887 0 0.92400002
-0.17226118 0 0.92400002
-0.16786347 0 0.92400002
-0.16346578 0 0.92400002
-0 0 0
-0 0 0
-0 0 0
-0 0 0
-0 0 0
-0 0 0
-0.38684532 0 2.6940002
-0.3737458 0 2.6920002
-0.36053121 0 2.6890001
-0.34747452 0 2.687
-0.33468598 0 2.687
-0.32201725 0 2.6880002
-0.30956909 0 2.6910002
-0.29709235 0 2.6940002
-0.28469256 0 2.6980002
-0.27296004 0 2.7090001
-0.26035479 0 2.7120001
-0.24762976 0 2.7140002
-0.23479918 0 2.7150002
-0.22187738 0 2.7150002
-0.20895559 0 2.7150002
-0.19603378 0 2.7150002
-0.18304454 0 2.7140002
-0.17019017 0 2.7150002
-0.1573263 0 2.7160001
-0.14434657 0 2.7150002
-0.13137637 0 2.7140002
-0.11828472 0 2.71
-0.10519228 0 2.7050002
-0.092181556 0 2.7010002
-0.079032697 0 2.6910002
-0.066102065 0 2.6860001
-0.053238884 0 2.6820002
-0.040428869 0 2.6790001
-0.027668074 0 2.6780002
-0.014927941 0 2.6790001
-0.0021791037 0 2.6810002
0.010604559 0 2.687
0.023445332 0 2.6930001
0.03631629 0 2.697
0.050100114 0 2.7490001
0.06304583 0 2.743
0.07721065 0 2.7830002
0.090423577 0 2.7820001
0.10370153 0 2.7830002
0.11917414 0 2.8360002
0.1329993 0 2.8430002
0.14632414 0 2.8390002
0.15983611 0 2.8390002
0.17334808 0 2.8390002
0.18732078 0 2.8460002
0.20326573 0 2.8800001
0.21719886 0 2.8830001
0.23124062 0 2.8870001
0.24735703 0 2.9150002
0.26212689 0 2.9250002
0.27576503 0 2.9220002
0.29304263 0 2.9560001
0.30731922 0 2.9580002
0.32118025 0 2.9560001
0.33524907 0 2.9560001
0.34837252 0 2.9480002
0.35846943 0 2.9160001
0.37145406 0 2.9090002
0.38503429 0 2.9070001
0.39694893 0 2.8930001
0.410292 0 2.8900001
0.4228729 0 2.8820002
0.43174186 0 2.8500001
0.44514996 0 2.8490002
0.45452335 0 2.8230002
0.46431226 0 2.8010001
0.47303918 0 2.7740002
0.48221025 0 2.7510002
0.49188253 0 2.7320001
0.5035916 0 2.7250001
0.51675057 0 2.7260001
0.52311778 0 2.6920002
0.53513372 0 2.6880002
0.54181182 0 2.6580002
0.54799569 0 2.6270001
0.55409777 0 2.5970001
0.55620635 0 2.5500002
0.55697602 0 2.4990001
0.56431699 0 2.4790001
0.56728446 0 2.4410002
0.56941581 0 2.401
0.5760048 0 2.381
0.58265018 0 2.3620002
0.59112602 0 2.3510001
0.6020593 0 2.3500001
0.61350483 0 2.3510001
0.6252256 0 2.3530002
0.63696545 0 2.355
0.65725654 0 2.388
0.67170203 0 2.3990002
0 0 0
0 0 0
0 0 0
0.79870951 0 2.6710002
0.82114309 0 2.7030001
0.84079593 0 2.7250001
0.86410451 0 2.7580001
0.87627673 0 2.7550001
0.89552265 0 2.7740002
0.90643215 0 2.7670002
0.93289524 0 2.8070002
0.9556939 0 2.835
0.97499853 0 2.8520002
1.0007042 0 2.8870001
1.023932 0 2.914
1.0467045 0 2.9390001
1.0772939 0 2.9850001
1.098814 0 3.0050001
1.1301554 0 3.0510001
1.1416749 0 3.0430002
1.1569177 0 3.0450001
1.1837205 0 3.0770001
1.1979758 0 3.0760002
1.2358747 0 3.1350002
1.2507954 0 3.1350002
1.2822692 0 3.1760001
1.2982023 0 3.1780002
1.3149806 0 3.1820002
1.3476818 0 3.2240002
1.3803599 0 3.2650001
1.4087253 0 3.2950001
1.4196525 0 3.2840002
1.449268 0 3.3160002
1.4650502 0 3.3160002
1.4785995 0 3.3110001
1.4979687 0 3.3190002
1.5105724 0 3.3120003
1.5217271 0 3.302
1.5365115 0 3.3000002
1.5517472 0 3.2990003
1.5683987 0 3.3010001
1.5855492 0 3.3040001
1.6022437 0 3.3060002
1.618957 0 3.3080001
1.6361836 0 3.3110001
1.6544367 0 3.3160002
1.67173 0 3.3190002
1.6895603 0 3.3230002
1.7043493 0 3.3210001
1.7206734 0 3.3220003
1.7547795 0 3.3570001
1.7712842 0 3.3580003
1.8027012 0 3.3870001
1.8445976 0 3.4350002
1.8544449 0 3.4230001
1.8718295 0 3.4250002
1.889233 0 3.427
1.9066554 0 3.4290001
1.9240972 0 3.4310002
1.9421235 0 3.4340003
1.9601781 0 3.4370003
1.9880378 0 3.4570003
2.0062306 0 3.4600003
2.0273747 0 3.4680002
2.0421124 0 3.4650002
2.0568216 0 3.4620001
2.0738974 0 3.4630001
2.0825319 0 3.45
2.0873926 0 3.4310002
2.1012695 0 3.427
2.1107829 0 3.4160001
2.1257958 0 3.4140003
2.1332603 0 3.4000001
2.1285801 0 3.3670001
2.1420574 0 3.3630002
2.1272612 0 3.3150001
2.1404529 0 3.3110001
2.1308134 0 3.2720001
2.1411383 0 3.2640002
2.1381721 0 3.2360001
0 0 0
0 0 0
0 0 0
0 0 0
0 0 0
2.0713522 0 3.0050001
1.9995905 0 2.881
1.9385287 0 2.7740002
1.9123307 0 2.7180002
1.9026 0 2.6860001
1.8947037 0 2.6570001
1.8829424 0 2.6230001
1.8759158 0 2.5960002
1.8715415 0 2.5730002
1.8815911 0 2.5700002
1.8930857 0 2.569
1.9053128 0 2.569
1.9250039 0 2.5790002
1.9748372 0 2.6290002
2.0296819 0 2.6850002
2.0949488 0 2.7540002
2.1578107 0 2.8190002
2.2120488 0 2.8720002
2.243542 0 2.8950002
2.2838314 0 2.9290001
2.2985561 0 2.9300001
2.3140795 0 2.9320002
2.3312101 0 2.9360001
2.3451838 0 2.9360001
2.3583541 0 2.9350002
2.3707063 0 2.9330001
2.3464525 0 2.8860002
2.3397429 0 2.8610001
2.3237472 0 2.825
2.3049269 0 2.786
2.2957203 0 2.7590001
2.2870936 0 2.733
2.2958932 0 2.7280002
2.2953351 0 2.7120001
2.3073914 0 2.7110002
2.3194382 0 2.71
2.3323362 0 2.71
2.3460999 0 2.7110002
2.3590026 0 2.7110002
2.3937781 0 2.7360001
2.4261529 0 2.7580001
2.4560838 0 2.7770002
2.5039792 0 2.8160002
2.5602915 0 2.8640001
2.629643 0 2.9260001
2.7149434 0 3.0050001
2.8000879 0 3.0830002
2.871367 0 3.1450002
2.9450712 0 3.2090001
2.9898648 0 3.2410002
3.0025084 0 3.2380002
3.0076668 0 3.2270002
0 0 0
0 0 0
0 0 0
0 0 0
0 0 0
0 0 0
0 0 0
0 0 0
0 0 0
0 0 0
0 0 0
0 0 0
-0 0 0
-0 0 0
-0 0 0
-0 0 0
-0 0 0
-0 0 0
-0 0 0
-0 0 0
-0 0 0
-2.2087975 0 2.2510002
-2.1980839 0 2.2510002
-2.1883421 0 2.2520001
-2.1805248 0 2.2550001
-2.1736412 0 2.2590001
-2.1657622 0 2.2620001
-2.1578543 0 2.2650001
-2.1546576 0 2.273
-2.144783 0 2.2740002
-2.13396 0 2.2740002
-2.1222034 0 2.273
-2.1104565 0 2.2720001
-2.1014915 0 2.2740002
-2.0897489 0 2.273
-2.0780163 0 2.2720001
-2.066293 0 2.2710001
-2.0554843 0 2.2710001
-2.0437756 0 2.2700002
-2.0329716 0 2.2700002
-2.0221677 0 2.2700002
-2.0140219 0 2.273
-2.00056 0 2.2700002
-1.9888794 0 2.2690001
-1.9789524 0 2.2700002
-1.9690155 0 2.2710001
-1.9582068 0 2.2710001
-1.9491131 0 2.273
-1.9400005 0 2.2750001
-1.9300207 0 2.276
-1.9217181 0 2.279
-1.9125484 0 2.2810001
-1.9058605 0 2.286
-1.8974674 0 2.289
-1.8890457 0 2.2920001
-1.8805954 0 2.2950001
-1.8729312 0 2.299
-1.8644192 0 2.302
-1.8566835 0 2.306
-1.8465089 0 2.3070002
-1.8379159 0 2.3100002
-1.8277124 0 2.3110001
-1.8182857 0 2.3130002
-1.8072772 0 2.3130002
-1.7970452 0 2.3140001
-1.7968376 0 2.3280001
-1.787292 0 2.3300002
-1.777727 0 2.332
-1.7711734 0 2.3380001
-0 0 0
-0 0 0
-0 0 0
-0 0 0
-0 0 0
-0 0 0
-0 0 0
-0 0 0
-0 0 0
-0 0 0
-0 0 0
-0 0 0
-0.56907189 0 0.81800002
-0.56586963 0 0.81900007
-0.56197166 0 0.81900007
-0.5580737 0 0.81900007
-0.55417573 0 0.81900007
-0.55027777 0 0.81900007
-0.54637986 0 0.81900007
-0.5424819 0 0.81900007
-0.53858387 0 0.81900007
-0.53468597 0 0.81900007
-0.530788 0 0.81900007
-0.52689004 0 0.81900007
-0.52299207 0 0.81900007
-0.51972795 0 0.82000005
-0.51645422 0 0.82100004
-0.51254678 0 0.82100004
-0.50925887 0 0.82200003
-0.50596136 0 0.82300001
-0.50265443 0 0.82400006
-0.49933791 0 0.82500005
-0.49601188 0 0.82600003
-0.49267638 0 0.82700002
-0.48933133 0 0.82800007
-0.48597673 0 0.82900006
-0.48261267 0 0.83000004
-0.47923902 0 0.83100003
-0.47585589 0 0.83200002
-0.47246325 0 0.83300006
-0.46906111 0 0.83400005
-0.4656494 0 0.83500004
-0.46222818 0 0.83600003
-0.45879745 0 0.83700001
-0.45535722 0 0.83800006
-0.45190746 0 0.83900005
-0.44844821 0 0.84000003
-0.44497937 0 0.84100002
-0.44150108 0 0.84200007
-0.43801326 0 0.84300005
-0.43400106 0 0.84300005
-0.43049893 0 0.84400004
-0.42698732 0 0.84500003
-0.42296559 0 0.84500003
-0.41943967 0 0.84600002
-0.41590425 0 0.84700006
-0.41235933 0 0.84800005
-0.40880486 0 0.84900004
-0.40524083 0 0.85000002
-0.40166733 0 0.85100001
-0.39808434 0 0.85200006
-0.39449179 0 0.85300004
-0.39088973 0 0.85400003
-0.38727814 0 0.85500002
-0.38365704 0 0.85600007
-0.38002643 0 0.85700005
-0.37638631 0 0.85800004
-0.37273663 0 0.85900003
-0.36950663 0 0.86100006
-0.36583319 0 0.86200005
-0.36215019 0 0.86300004
-0.35887259 0 0.86500007
-0.35516584 0 0.86600006
-0.35144952 0 0.86700004
-0.34812433 0 0.86900002
-0.34438425 0 0.87000006
-0.34102571 0 0.87200004
-0.33726183 0 0.87300003
-0.33387002 0 0.87500006
-0.33008233 0 0.87600005
-0.32628512 0 0.87700003
-0.32247838 0 0.87800002
-0.3186622 0 0.87900007
-0.31483644 0 0.88000005
-0.31100115 0 0.88100004
-0.30715635 0 0.88200003
-0.30330205 0 0.88300002
-0.29943821 0 0.88400006
-0.29556486 0 0.88500005
-0.291682 0 0.88600004
-0.28778961 0 0.88700002
-0.28388771 0 0.88800007
-0.27997631 0 0.88900006
-0.27605534 0 0.89000005
-0.27212489 0 0.89100003
-0.26848558 0 0.89300007
-0.26482719 0 0.89500004
-0.26085865 0 0.89600003
-0.25688061 0 0.89700001
-0.25317466 0 0.89900005
-0.24944966 0 0.90100002
-0.24570565 0 0.90300006
-0.24167521 0 0.90400004
-0.2376353 0 0.90500003
-0.23384368 0 0.90700006
-0.22977994 0 0.90800005
-0.22595499 0 0.91000003
-0.22211103 0 0.91200006
-0.21824799 0 0.91400003
-0.21413192 0 0.91500002
-0.21000634 0 0.91600007
-0.20587121 0 0.91700006
-0.20172659 0 0.91800004
-0.19757243 0 0.91900003
-0.19319852 0 0.91900003
-0.18903008 0 0.92000002
-0.18485215 0 0.92100006
-0.18086062 0 0.92300004
-0.17665887 0 0.92400002
-0.17226118 0 0.92400002
-0.16786347 0 0.92400002
-0.16346578 0 0.92400002
-0 0 0
-0 0 0
-0 0 0
-0 0 0
-0 0 0
-0 0 0
-0.3867017 0 2.6930001
-0.37360698 0 2.6910002
-0.36053121 0 2.6890001
-0.34747452 0 2.687
-0.33468598 0 2.687
-0.32201725 0 2.6880002
-0.30968413 0 2.6920002
-0.29720262 0 2.6950002
-0.28564224 0 2.707
-0.2730608 0 2.71
-0.26035479 0 2.7120001
-0.24772099 0 2.7150002
-0.23488565 0 2.7160001
-0.2219591 0 2.7160001
-0.20903255 0 2.7160001
-0.19625039 0 2.7180002
-0.18331431 0 2.7180002
-0.1704409 0 2.7190001
-0.15686288 0 2.7080002
-0.14455922 0 2.7190001
-0.13157 0 2.7180002
-0.11845932 0 2.7140002
-0.10515339 0 2.7040002
-0.09238632 0 2.707
-0.078973949 0 2.6890001
-0.066052847 0 2.684
-0.053199183 0 2.6800001
-0.040413778 0 2.6780002
-0.02764741 0 2.6760001
-0.014916796 0 2.677
-0.0021782906 0 2.6800001
0.010596666 0 2.6850002
0.02362816 0 2.7140002
0.036841441 0 2.7360001
0.05015479 0 2.7520001
0.063735366 0 2.7730002
0.077238388 0 2.7840002
0.091528691 0 2.8160002
0.10511751 0 2.8210001
0.11921616 0 2.8370001
0.13309285 0 2.845
0.14632414 0 2.8390002
0.15994871 0 2.8410001
0.17530198 0 2.8710001
0.18922955 0 2.8750002
0.2033363 0 2.881
0.21727419 0 2.8840001
0.23116052 0 2.8860002
0.24523561 0 2.8900001
0.26203725 0 2.924
0.27604815 0 2.9250002
0.2927452 0 2.9530001
0.30700755 0 2.9550002
0.32074565 0 2.9520001
0.33456859 0 2.95
0.34789982 0 2.9440002
0.35797772 0 2.9120002
0.37132636 0 2.9080002
0.38490185 0 2.9060001
0.39722335 0 2.8950002
0.41057596 0 2.8920002
0.4228729 0 2.8820002
0.43310526 0 2.8590002
0.44499367 0 2.848
0.45452335 0 2.8230002
0.4639807 0 2.799
0.47252759 0 2.7710001
0.48185965 0 2.7490001
0.49224263 0 2.7340002
0.49878669 0 2.6990001
0.51049495 0 2.6930001
0.52292347 0 2.6910002
0.53513372 0 2.6880002
0.54181182 0 2.6580002
0.54778707 0 2.6260002
0.55409777 0 2.5970001
0.5564245 0 2.5510001
0.55853617 0 2.506
0.56499988 0 2.4820001
0.5679816 0 2.444
0.57036448 0 2.4050002
0.5762468 0 2.3820002
0.58265018 0 2.3620002
0.59137744 0 2.352
0.60231549 0 2.3510001
0.61376578 0 2.352
0.62549132 0 2.3540001
0.63750643 0 2.3570001
0.65753186 0 2.3890002
0.67198199 0 2.4000001
0.69166237 0 2.4290001
0.71219778 0 2.46
0.73038 0 2.4820001
0.75535011 0 2.526
0.77922016 0 2.5650001
0.81765479 0 2.6500001
0.82744735 0 2.641
0.8479687 0 2.6660001
0.87227911 0 2.7020001
0.88775969 0 2.71
0.90198708 0 2.7140002
0.92535442 0 2.7450001
0.94423068 0 2.7620001
0.96708167 0 2.7900002
0.98668534 0 2.8080001
1.0039674 0 2.8190002
1.0217149 0 2.8310001
1.052375 0 2.878
1.0827415 0 2.9230001
1.1075335 0 2.9520001
1.1314617 0 2.9780002
1.1610233 0 3.0180001
1.1971967 0 3.0740001
1.2086736 0 3.0660002
1.2503964 0 3.1340001
1.2822692 0 3.1760001
1.2977936 0 3.177
1.3149806 0 3.1820002
1.3472637 0 3.223
1.3803599 0 3.2650001
1.410008 0 3.2980001
1.4265691 0 3.3000002
1.4470828 0 3.3110001
1.4641665 0 3.3140001
1.4808325 0 3.3160002
1.4952606 0 3.3130002
1.508292 0 3.3070002
1.5203446 0 3.2990003
1.5355803 0 3.2980001
1.5512768 0 3.2980001
1.5674486 0 3.2990003
1.5845894 0 3.302
1.6012743 0 3.3040001
1.6179783 0 3.3060002
1.6351954 0 3.3090003
1.6534388 0 3.3140001
1.6707226 0 3.3170002
1.689052 0 3.3220003
1.7146133 0 3.3410001
1.7486434 0 3.3760002
1.7657567 0 3.3780003
1.7834162 0 3.381
1.8021691 0 3.3860002
1.8472825 0 3.4400001
1.8674471 0 3.4470003
1.886039 0 3.4510002
1.9035662 0 3.4530001
1.9216685 0 3.4560001
1.9392387 0 3.4580002
1.956828 0 3.4600003
1.9738657 0 3.4610002
2.004715 0 3.4860001
2.019567 0 3.4830003
2.0320516 0 3.4760001
2.0468273 0 3.473
2.0568216 0 3.4620001
2.0774906 0 3.4690001
2.0752885 0 3.4380002
2.0886095 0 3.4330001
2.1024957 0 3.4290001
2.1126368 0 3.4190001
2.1276639 0 3.4170001
2.1351426 0 3.4030001
2.1285801 0 3.3670001
2.1420574 0 3.3630002
2.1529295 0 3.3550003
2.1669581 0 3.3520002
2.1451404 0 3.2940001
2.160162 0 3.2930002
2.1553514 0 3.2620001
2.1735389 0 3.2660003
2.1723263 0 3.2410002
2.1796513 0 3.2290001
2.1746261 0 3.1990001
2.1412489 0 3.1280003
2.0713522 0 3.0050001
2.0002847 0 2.8820002
1.9385287 0 2.7740002
1.9109236 0 2.7160001
1.9026 0 2.6860001
1.8939908 0 2.6560001
1.8822247 0 2.6220002
1.8686897 0 2.5860002
1.8722688 0 2.5740001
1.8830552 0 2.572
1.8901383 0 2.5650001
1.903088 0 2.5660002
1.9279895 0 2.5830002
1.9755883 0 2.6300001
2.0304379 0 2.6860001
2.0949488 0 2.7540002
2.1539834 0 2.8140001
2.2112784 0 2.8710001
2.2427669 0 2.8940001
2.2869501 0 2.9330001
2.2985561 0 2.9300001
2.312501 0 2.9300001
2.3145361 0 2.9150002
2.3268123 0 2.9130001
2.3390694 0 2.9110003
2.3246341 0 2.8760002
2.318809 0 2.8520002
2.309484 0 2.8240001
2.3146992 0 2.8140001
2.3032725 0 2.7840002
2.2857354 0 2.7470002
2.2887673 0 2.7350001
2.2891603 0 2.72
2.3080306 0 2.7270002
2.3193071 0 2.7250001
2.322006 0 2.7130001
2.3340576 0 2.7120001
2.3469651 0 2.7120001
2.3607428 0 2.7130001
2.3745301 0 2.7140002
2.4006422 0 2.7290001
2.4516616 0 2.7720001
2.4621868 0 2.7690001
2.5281091 0 2.8280001
2.5900996 0 2.8820002
2.6878393 0 2.9750001
2.7991798 0 3.0820003
2.8704538 0 3.1440001
2.9432359 0 3.2070003
2.9907873 0 3.2420001
3.0043628 0 3.2400002
3.0197833 0 3.2400002
0 0 0
0 0 0
0 0 0
0 0 0
0 0 0
0 0 0
3.2483952 0 3.3650002
3.2673211 0 3.3680003
0 0 0
0 0 0
0 0 0
0 0 0
-0 0 0
-0 0 0
-0 0 0
-0 0 0
-0 0 0
-0 0 0
-0 0 0
-0 0 0
-0 0 0
-0 0 0
-2.1990602 0 2.2520001
-2.1893139 0 2.253
-2.179558 0 2.2540002
-2.1726789 0 2.2580001
-2.1648047 0 2.2610002
-2.1626179 0 2.2700002
-2.1527619 0 2.2710001
-2.1428967 0 2.2720001
-2.1330216 0 2.273
-2.1222034 0 2.273
-2.1113853 0 2.273
-2.099643 0 2.2720001
-2.0869908 0 2.2700002
-2.0780163 0 2.2720001
-2.0672028 0 2.2720001
-2.0554843 0 2.2710001
-2.0446758 0 2.2710001
-2.0329716 0 2.2700002
-2.0221677 0 2.2700002
-2.0104778 0 2.2690001
-1.9996786 0 2.2690001
-1.988003 0 2.2680001
-1.9772087 0 2.2680001
-1.9664143 0 2.2680001
-1.9564822 0 2.2690001
-1.9465408 0 2.2700002
-1.9365896 0 2.2710001
-1.9274768 0 2.273
-1.9183452 0 2.2750001
-1.9108714 0 2.279
-1.9033594 0 2.283
-1.8958095 0 2.2870002
-1.8882216 0 2.2910001
-1.8797761 0 2.2940001
-1.8729312 0 2.299
-1.8652292 0 2.3030002
-1.8558785 0 2.3050001
-1.8465089 0 2.3070002
-1.8371201 0 2.309
-1.8285033 0 2.312
-1.8190717 0 2.3140001
-1.8072772 0 2.3130002
-1.8079175 0 2.3280001
-1.7999249 0 2.332
-1.7903602 0 2.3340001
-1.7807764 0 2.3360002
-1.7726886 0 2.3400002
-0 0 0
-0 0 0
-0 0 0
-0 0 0
-0 0 0
-0 0 0
-0 0 0
-0 0 0
-0 0 0
-0 0 0
-0 0 0
-0 0 0
-0.56907189 0 0.81800002
-0.56656057 0 0.82000005
-0.56265783 0 0.82000005
-0.5580737 0 0.81900007
-0.55417573 0 0.81900007
-0.55027777 0 0.81900007
-0.54637986 0 0.81900007
-0.5424819 0 0.81900007
-0.53858387 0 0.81900007
-0.53468597 0 0.81900007
-0.530788 0 0.81900007
-0.52689004 0 0.81900007
-0.52299207 0 0.81900007
-0.51972795 0 0.82000005
-0.51645422 0 0.82100004
-0.51317108 0 0.82200003
-0.5098784 0 0.82300001
-0.50657618 0 0.82400006
-0.50326443 0 0.82500005
-0.49994317 0 0.82600003
-0.49661237 0 0.82700002
-0.49267638 0 0.82700002
-0.48933133 0 0.82800007
-0.48597673 0 0.82900006
-0.48261267 0 0.83000004
-0.47923902 0 0.83100003
-0.47585589 0 0.83200002
-0.47246325 0 0.83300006
-0.46906111 0 0.83400005
-0.4656494 0 0.83500004
-0.46222818 0 0.83600003
-0.45879745 0 0.83700001
-0.45535722 0 0.83800006
-0.45190746 0 0.83900005
-0.44844821 0 0.84000003
-0.44497937 0 0.84100002
-0.44150108 0 0.84200007
-0.43801326 0 0.84300005
-0.43451589 0 0.84400004
-0.43049893 0 0.84400004
-0.42698732 0 0.84500003
-0.42296559 0 0.84500003
-0.41943967 0 0.84600002
-0.41590425 0 0.84700006
-0.41235933 0 0.84800005
-0.40880486 0 0.84900004
-0.40524083 0 0.85000002
-0.40166733 0 0.85100001
-0.39808434 0 0.85200006
-0.39449179 0 0.85300004
-0.39088973 0 0.85400003
-0.38727814 0 0.85500002
-0.38365704 0 0.85600007
-0.38002643 0 0.85700005
-0.37638631 0 0.85800004
-0.37317052 0 0.86000001
-0.36950663 0 0.86100006
-0.36583319 0 0.86200005
-0.36215019 0 0.86300004
-0.35887259 0 0.86500007
-0.35516584 0 0.86600006
-0.35144952 0 0.86700004
-0.34812433 0 0.86900002
-0.34438425 0 0.87000006
-0.34063464 0 0.87100005
-0.33726183 0 0.87300003
-0.33387002 0 0.87500006
-0.33008233 0 0.87600005
-0.32628512 0 0.87700003
-0.32247838 0 0.87800002
-0.3186622 0 0.87900007
-0.31483644 0 0.88000005
-0.31100115 0 0.88100004
-0.30715635 0 0.88200003
-0.30330205 0 0.88300002
-0.29943821 0 0.88400006
-0.29556486 0 0.88500005
-0.291682 0 0.88600004
-0.28778961 0 0.88700002
-0.28388771 0 0.88800007
-0.27997631 0 0.88900006
-0.27605534 0 0.89000005
-0.27212489 0 0.89100003
-0.26848558 0 0.89300007
-0.26482719 0 0.89500004
-0.26085865 0 0.89600003
-0.25716701 0 0.89800006
-0.25345626 0 0.90000004
-0.24944966 0 0.90100002
-0.24570565 0 0.90300006
-0.24167521 0 0.90400004
-0.2376353 0 0.90500003
-0.23384368 0 0.90700006
-0.230033 0 0.90900004
-0.22595499 0 0.91000003
-0.22211103 0 0.91200006
-0.21824799 0 0.91400003
-0.21413192 0 0.91500002
-0.21000634 0 0.91600007
-0.20587121 0 0.91700006
-0.20172659 0 0.91800004
-0.19757243 0 0.91900003
-0.19319852 0 0.91900003
-0.18903008 0 0.92000002
-0.18485215 0 0.92100006
-0.18086062 0 0.92300004
-0.17665887 0 0.92400002
-0.17226118 0 0.92400002
-0.16786347 0 0.92400002
-0.16346578 0 0.92400002
-0 0 0
-0 0 0
-0 0 0
-0 0 0
-0 0 0
-0 0 0
-0.3867017 0 2.6930001
-0.37360698 0 2.6910002
-0.36053121 0 2.6890001
-0.34760386 0 2.6880002
-0.33481055 0 2.6880002
-0.32213706 0 2.6890001
-0.30979913 0 2.6930001
-0.29731289 0 2.6960001
-0.28553671 0 2.7060001
-0.27296004 0 2.7090001
-0.26035479 0 2.7120001
-0.24762976 0 2.7140002
-0.23488565 0 2.7160001
-0.22228599 0 2.72
-0.20934039 0 2.72
-0.19632259 0 2.7190001
-0.18351665 0 2.7210002
-0.17056628 0 2.7210002
-0.15703666 0 2.7110002
-0.14466557 0 2.7210002
-0.1316184 0 2.7190001
-0.11850297 0 2.7150002
-0.10538671 0 2.71
-0.091976784 0 2.6950002
-0.078944586 0 2.6880002
-0.066003628 0 2.6820002
-0.053159483 0 2.6780002
-0.040398687 0 2.677
-0.027637079 0 2.6750002
-0.014911225 0 2.6760001
-0.002177478 0 2.6790001
0.010592719 0 2.684
0.02362816 0 2.7140002
0.036868375 0 2.7380002
0.05015479 0 2.7520001
0.063735366 0 2.7730002
0.077127419 0 2.7800002
0.09159369 0 2.8180001
0.10526655 0 2.825
0.11921616 0 2.8370001
0.13262504 0 2.835
0.14637567 0 2.8400002
0.16011761 0 2.8440001
0.17456928 0 2.8590002
0.18922955 0 2.8750002
0.2033363 0 2.881
0.21674682 0 2.8770001
0.23100032 0 2.8840001
0.24532045 0 2.891
0.2594384 0 2.8950002
0.27633128 0 2.9280002
0.29135734 0 2.9390001
0.30544913 0 2.9400001
0.31911582 0 2.937
0.33264059 0 2.9330001
0.3470726 0 2.937
0.35797772 0 2.9120002
0.37158173 0 2.9100001
0.38463694 0 2.904
0.39749777 0 2.8970001
0.41100186 0 2.8950002
0.42301962 0 2.8830001
0.43477163 0 2.8700001
0.44499367 0 2.848
0.45468435 0 2.8240001
0.46414649 0 2.8000002
0.47235709 0 2.7700002
0.48203498 0 2.7500002
0.49242267 0 2.7350001
0.49897146 0 2.7
0.51333845 0 2.7080002
0.52311778 0 2.6920002
0.53513372 0 2.6880002
0.54242331 0 2.661
0.5550881 0 2.661
0.5604986 0 2.6270001
0.56362242 0 2.5840001
0.56566828 0 2.5380001
0.5654552 0 2.4840002
0.5686788 0 2.447
0.57083881 0 2.4070001
0.57648867 0 2.3830001
0.58265018 0 2.3620002
0.59188038 0 2.3540001
0.60257167 0 2.352
0.61402673 0 2.3530002
0.62575704 0 2.355
0.6380474 0 2.3590002
0.65450424 0 2.378
0.66946208 0 2.391
0.68283504 0 2.398
0.70322299 0 2.4290001
0.71419507 0 2.427
0.73740834 0 2.4660001
0.7582587 0 2.4960001
0.78032035 0 2.529
0.8048892 0 2.569
0.83015692 0 2.6100001
0.85226381 0 2.6400001
0.86974245 0 2.6550002
0.8870315 0 2.6690001
0.90377975 0 2.6810002
0.91927457 0 2.6890001
0.93241918 0 2.6900001
0.94592488 0 2.6920002
0.95873713 0 2.6920002
0.97191036 0 2.6930001
0.99789131 0 2.7290001
1.026067 0 2.7700002
1.0636373 0 2.835
1.0976471 0 2.8890002
1.1406342 0 2.9650002
1.175387 0 3.0180001
1.2078851 0 3.0640001
1.2527902 0 3.1400001
1.2830768 0 3.1780002
1.2973852 0 3.1760001
1.3327507 0 3.2250001
1.3618942 0 3.2580001
1.3807827 0 3.2660003
1.4112905 0 3.3010001
1.4274336 0 3.302
1.4475198 0 3.3120003
1.4637247 0 3.3130002
1.4768133 0 3.3070002
1.4921013 0 3.3060002
1.5073798 0 3.3050001
1.5208055 0 3.3000002
1.5360459 0 3.2990003
1.5517472 0 3.2990003
1.5674486 0 3.2990003
1.5841095 0 3.3010001
1.6007897 0 3.3030002
1.6174887 0 3.3050001
1.634207 0 3.3070002
1.6679077 0 3.3430002
1.6833148 0 3.3420002
1.7170162 0 3.3770001
1.7320623 0 3.3750002
1.7486434 0 3.3760002
1.7798702 0 3.4050002
1.7966033 0 3.4060001
1.8394259 0 3.4560001
1.8499676 0 3.4450002
1.8685306 0 3.4490001
1.8865855 0 3.4520001
1.9101816 0 3.4650002
1.9272288 0 3.4660001
1.9448467 0 3.4680002
1.9619179 0 3.4690001
1.9738657 0 3.4610002
2.0029898 0 3.4830003
2.0184071 0 3.4810002
2.031467 0 3.4750001
2.0462379 0 3.4720001
2.0580099 0 3.4640002
2.0792873 0 3.4720001
2.0746849 0 3.4370003
2.0886095 0 3.4330001
2.1037221 0 3.4310002
2.1144905 0 3.4220002
2.1295319 0 3.4200001
2.1382799 0 3.4080002
2.1545 0 3.4080002
2.170083 0 3.4070001
2.1522877 0 3.3540001
2.1669581 0 3.3520002
2.1659799 0 3.3260002
2.1804974 0 3.3240001
2.1969783 0 3.325
2.1768663 0 3.2710001
2.196456 0 3.2770002
2.1796513 0 3.2290001
2.1827836 0 3.2110002
2.1405642 0 3.1270001
2.0996137 0 3.0460002
1.9711342 0 2.8400002
1.9126723 0 2.7370002
1.9095165 0 2.7140002
1.8813498 0 2.6560001
1.8683192 0 2.6200001
1.8592532 0 2.5900002
1.8773609 0 2.598
1.870814 0 2.572
1.8815911 0 2.5700002
1.8938228 0 2.5700002
1.9060545 0 2.5700002
1.9302288 0 2.5860002
1.9755883 0 2.6300001
2.0304379 0 2.6860001
2.094188 0 2.753
2.1539834 0 2.8140001
2.2089677 0 2.868
2.2474167 0 2.9000001
2.2542014 0 2.891
2.2671764 0 2.8900001
2.2793527 0 2.8880002
2.2907159 0 2.8850002
2.3020506 0 2.8820002
2.3133564 0 2.8790002
2.3052351 0 2.8520002
2.2992957 0 2.8280001
2.2874033 0 2.7970002
2.3188119 0 2.8190002
2.3016176 0 2.7820001
2.282407 0 2.743
2.2870936 0 2.733
2.2916851 0 2.723
2.3012595 0 2.7190001
2.3124983 0 2.7170002
2.3262854 0 2.7180002
2.3383608 0 2.7170002
2.348696 0 2.7140002
2.3598726 0 2.7120001
2.3710301 0 2.71
2.3980031 0 2.7260001
2.4100931 0 2.7250001
2.4630761 0 2.7700002
2.5039723 0 2.8010001
2.5883021 0 2.8800001
2.6869359 0 2.9740002
2.7755656 0 3.0560002
2.8695409 0 3.1430001
2.9414003 0 3.2050002
2.9907873 0 3.2420001
3.0043628 0 3.2400002
3.0197833 0 3.2400002
3.0277095 0 3.2320001
0 0 0
0 0 0
0 0 0
0 0 0
3.2256558 0 3.3580003
3.2435684 0 3.3600001
3.2605302 0 3.3610001
0 0 0
0 0 0
0 0 0
0 0 0
-0 0 0
-0 0 0
-0 0 0
-0 0 0
-0 0 0
-0 0 0
-0 0 0
-0 0 0
-0 0 0
-0 0 0
-2.1990602 0 2.2520001
-2.1883421 0 2.2520001
-2.1785908 0 2.253
-2.1717169 0 2.2570002
-2.1628897 0 2.2590001
-2.153091 0 2.26
-2.1499181 0 2.2680001
-2.1400671 0 2.2690001
-2.1311448 0 2.2710001
-2.1203361 0 2.2710001
-2.1104565 0 2.2720001
-2.099643 0 2.2720001
-2.0869908 0 2.2700002
-2.0761871 0 2.2700002
-2.0653832 0 2.2700002
-2.053674 0 2.2690001
-2.0419748 0 2.2680001
-2.0311804 0 2.2680001
-2.020386 0 2.2680001
-2.0095918 0 2.2680001
-1.9996786 0 2.2690001
-1.9871265 0 2.2670002
-1.9754651 0 2.266
-1.9646802 0 2.266
-1.9538953 0 2.266
-1.9439683 0 2.2670002
-1.9340312 0 2.2680001
-1.9257809 0 2.2710001
-1.9166586 0 2.273
-1.908356 0 2.276
-1.9016922 0 2.2810001
-1.8949805 0 2.286
-1.8873975 0 2.2900002
-1.8797761 0 2.2940001
-1.8729312 0 2.299
-1.8644192 0 2.302
-1.8566835 0 2.306
-1.8473091 0 2.3080001
-1.8379159 0 2.3100002
-1.8285033 0 2.312
-1.8190717 0 2.3140001
-1.8174349 0 2.3260002
-1.8094708 0 2.3300002
-1.8014686 0 2.3340001
-1.7918944 0 2.3360002
-1.7830634 0 2.3390002
-1.7734461 0 2.3410001
-0 0 0
-0 0 0
-0 0 0
-0 0 0
-0 0 0
-0 0 0
-0 0 0
-0 0 0
-0 0 0
-0 0 0
-0 0 0
-0 0 0
-0.5704633 0 0.82000005
-0.56656057 0 0.82000005
-0.56265783 0 0.82000005
-0.5587551 0 0.82000005
-0.55485237 0 0.82000005
-0.55094963 0 0.82000005
-0.54704696 0 0.82000005
-0.54314423 0 0.82000005
-0.53924149 0 0.82000005
-0.53533882 0 0.82000005
-0.53143609 0 0.82000005
-0.52753335 0 0.82000005
-0.52363068 0 0.82000005
-0.51972795 0 0.82000005
-0.51645422 0 0.82100004
-0.51317108 0 0.82200003
-0.5098784 0 0.82300001
-0.50657618 0 0.82400006
-0.50326443 0 0.82500005
-0.49994317 0 0.82600003
-0.49661237 0 0.82700002
-0.49267638 0 0.82700002
-0.48933133 0 0.82800007
-0.48597673 0 0.82900006
-0.48261267 0 0.83000004
-0.47923902 0 0.83100003
-0.47585589 0 0.83200002
-0.47246325 0 0.83300006
-0.46906111 0 0.83400005
-0.4656494 0 0.83500004
-0.46222818 0 0.83600003
-0.45879745 0 0.83700001
-0.45535722 0 0.83800006
-0.45190746 0 0.83900005
-0.44844821 0 0.84000003
-0.44497937 0 0.84100002
-0.44150108 0 0.84200007
-0.43801326 0 0.84300005
-0.43451589 0 0.84400004
-0.43100899 0 0.84500003
-0.42698732 0 0.84500003
-0.42296559 0 0.84500003
-0.41943967 0 0.84600002
-0.41590425 0 0.84700006
-0.41235933 0 0.84800005
-0.40880486 0 0.84900004
-0.40524083 0 0.85000002
-0.40166733 0 0.85100001
-0.39808434 0 0.85200006
-0.39449179 0 0.85300004
-0.39088973 0 0.85400003
-0.38727814 0 0.85500002
-0.38365704 0 0.85600007
-0.38002643 0 0.85700005
-0.37638631 0 0.85800004
-0.37317052 0 0.86000001
-0.36950663 0 0.86100006
-0.36583319 0 0.86200005
-0.36215019 0 0.86300004
-0.35887259 0 0.86500007
-0.35516584 0 0.86600006
-0.35144952 0 0.86700004
-0.34772372 0 0.86800003
-0.34438425 0 0.87000006
-0.34063464 0 0.87100005
-0.33726183 0 0.87300003
-0.33387002 0 0.87500006
-0.33008233 0 0.87600005
-0.32628512 0 0.87700003
-0.32247838 0 0.87800002
-0.3186622 0 0.87900007
-0.31483644 0 0.88000005
-0.31100115 0 0.88100004
-0.30715635 0 0.88200003
-0.30330205 0 0.88300002
-0.29943821 0 0.88400006
-0.29556486 0 0.88500005
-0.291682 0 0.88600004
-0.28778961 0 0.88700002
-0.28388771 0 0.88800007
-0.27997631 0 0.88900006
-0.27605534 0 0.89000005
-0.27212489 0 0.89100003
-0.26848558 0 0.89300007
-0.26482719 0 0.89500004
-0.26114979 0 0.89700001
-0.25716701 0 0.89800006
-0.25345626 0 0.90000004
-0.24972653 0 0.90200007
-0.24570565 0 0.90300006
-0.24167521 0 0.90400004
-0.23789787 0 0.90600002
-0.23384368 0 0.90700006
-0.230033 0 0.90900004
-0.22595499 0 0.91000003
-0.22211103 0 0.91200006
-0.21824799 0 0.91400003
-0.21413192 0 0.91500002
-0.21000634 0 0.91600007
-0.20587121 0 0.91700006
-0.20172659 0 0.91800004
-0.19757243 0 0.91900003
-0.19319852 0 0.91900003
-0.18903008 0 0.92000002
-0.18505286 0 0.92200005
-0.18086062 0 0.92300004
-0.17665887 0 0.92400002
-0.17244762 0 0.92500007
-0.16804516 0 0.92500007
-0.1636427 0 0.92500007
-0 0 0
-0 0 0
-0 0 0
-0 0 0
-0 0 0
-0 0 0
-0.38684532 0 2.6940002
-0.37527299 0 2.7030001
-0.36214015 0 2.7010002
-0.34915563 0 2.7
-0.33618069 0 2.6990001
-0.32237667 0 2.6910002
-0.3099142 0 2.6940002
-0.29819512 0 2.7040002
-0.28532568 0 2.7040002
-0.2730608 0 2.71
-0.26025879 0 2.7110002
-0.24762976 0 2.7140002
-0.23488565 0 2.7160001
-0.22204083 0 2.7170002
-0.20941737 0 2.7210002
-0.19653919 0 2.7220001
-0.18358409 0 2.7220001
-0.17069164 0 2.723
-0.15784763 0 2.7250001
-0.14471872 0 2.7220001
-0.13166679 0 2.72
-0.11850297 0 2.7150002
-0.10538671 0 2.71
-0.092352197 0 2.7060001
-0.078915209 0 2.687
-0.066003628 0 2.6820002
-0.053159483 0 2.6780002
-0.040383596 0 2.6760001
-0.02764741 0 2.6760001
-0.014911225 0 2.6760001
-0.002177478 0 2.6790001
0.010592719 0 2.684
0.023619454 0 2.7130001
0.036881838 0 2.7390001
0.050537515 0 2.7730002
0.063735366 0 2.7730002
0.077793263 0 2.8040001
0.091528691 0 2.8160002
0.10515476 0 2.822
0.118922 0 2.8300002
0.13262504 0 2.835
0.14637567 0 2.8400002
0.16011761 0 2.8440001
0.17432502 0 2.855
0.18830806 0 2.8610001
0.20241877 0 2.868
0.21652082 0 2.8740001
0.23076004 0 2.881
0.24523561 0 2.8900001
0.25934878 0 2.8940001
0.27614254 0 2.9260001
0.29026684 0 2.9280002
0.30420241 0 2.9280002
0.31878987 0 2.9340003
0.33207351 0 2.9280002
0.34506369 0 2.9200001
0.35810062 0 2.9130001
0.37170944 0 2.9110003
0.38490185 0 2.9060001
0.39777219 0 2.8990002
0.41100186 0 2.8950002
0.42301962 0 2.8830001
0.43552908 0 2.8750002
0.44686866 0 2.8600001
0.45967555 0 2.855
0.4639807 0 2.799
0.47576761 0 2.7900002
0.48711821 0 2.779
0.49422312 0 2.7450001
0.50710291 0 2.7440002
0.51921487 0 2.7390001
0.53205663 0 2.7380002
0.54090714 0 2.7170002
0.5534308 0 2.7150002
0.56218058 0 2.6950002
0.5694598 0 2.6690001
0.57147479 0 2.6200001
0.57257754 0 2.569
0.57319492 0 2.5180001
0.56914359 0 2.4490001
0.57107598 0 2.4080002
0.57939172 0 2.3950002
0.58289683 0 2.3630002
0.59188038 0 2.3540001
0.60308403 0 2.3540001
0.61454862 0 2.355
0.62628847 0 2.3570001
0.63831788 0 2.3600001
0.65340328 0 2.3740001
0.66862208 0 2.388
0.68226558 0 2.3960001
0.69888026 0 2.414
0.71331227 0 2.424
0.7269423 0 2.4310002
0.74367684 0 2.4480002
0.76489288 0 2.4790001
0.78891051 0 2.5180001
0.81488961 0 2.562
0.84193331 0 2.608
0.85794938 0 2.6190002
0.86875248 0 2.6140001
0.88422757 0 2.6230001
0.89466029 0 2.6170001
0.90676904 0 2.6160002
0.91851693 0 2.6140001
0.93060184 0 2.6130002
0.94267732 0 2.6120002
0.95547456 0 2.6130002
0.98939538 0 2.6710002
1.0264944 0 2.7360001
1.0676318 0 2.8100002
1.111397 0 2.8890002
1.1563036 0 2.9690001
1.2074909 0 3.0630002
1.2523912 0 3.1390002
1.2854992 0 3.1840003
1.3169931 0 3.2240002
1.3331639 0 3.2260001
1.3635663 0 3.2620001
1.3972708 0 3.3050001
1.4121456 0 3.3030002
1.4282982 0 3.3040001
1.4479568 0 3.3130002
1.4637247 0 3.3130002
1.4763668 0 3.3060002
1.4911987 0 3.3040001
1.5073798 0 3.3050001
1.5217271 0 3.302
1.5369771 0 3.3010001
1.5522175 0 3.3000002
1.5674486 0 3.2990003
1.6042649 0 3.3430002
1.6192062 0 3.3410001
1.6365757 0 3.3440001
1.6534795 0 3.3460002
1.6684066 0 3.3440001
1.7064843 0 3.3880002
1.71905 0 3.381
1.7623414 0 3.4340003
1.7849008 0 3.4460001
1.8028699 0 3.4490001
1.8208674 0 3.4520001
1.8394259 0 3.4560001
1.8564116 0 3.4570003
1.8723229 0 3.4560001
1.8925971 0 3.4630001
1.9096304 0 3.4640002
1.9272288 0 3.4660001
1.944286 0 3.4670002
1.9613523 0 3.4680002
1.9869829 0 3.4840002
2.0018396 0 3.4810002
2.0166676 0 3.4780002
2.0302978 0 3.473
2.0450592 0 3.4700003
2.0645449 0 3.4750001
2.079886 0 3.473
2.0746849 0 3.4370003
2.0886095 0 3.4330001
2.1037221 0 3.4310002
2.1163442 0 3.4250002
2.1270411 0 3.4160001
2.1426718 0 3.4150002
2.1589253 0 3.4150002
2.1751788 0 3.4150002
2.1952822 0 3.4210002
2.1844127 0 3.3790002
2.1998436 0 3.3780003
2.2224805 0 3.3880002
2.2101934 0 3.3450003
2.2254481 0 3.3440001
2.2225962 0 3.3160002
2.2161026 0 3.2830002
2.1997781 0 3.2360001
2.1398797 0 3.1260002
1.9941503 0 2.8930001
1.9461479 0 2.8040001
1.8952017 0 2.7120001
1.875041 0 2.6650002
1.8643497 0 2.6320002
1.8547703 0 2.6010001
1.8606888 0 2.592
1.8571278 0 2.5700002
1.8693594 0 2.5700002
1.8801267 0 2.5680001
1.8923489 0 2.5680001
1.9053128 0 2.569
1.9309751 0 2.5870001
1.9748372 0 2.6290002
2.0304379 0 2.6860001
2.0881023 0 2.7450001
2.1539834 0 2.8140001
2.2012656 0 2.858
2.2148678 0 2.858
2.2292502 0 2.8590002
2.2420728 0 2.858
2.2540967 0 2.8560002
2.2661016 0 2.8540001
2.2780876 0 2.8520002
2.2627342 0 2.8160002
2.2761369 0 2.8160002
2.2659609 0 2.7870002
2.28495 0 2.7940001
2.2908447 0 2.7850001
2.2718339 0 2.7460001
2.2807429 0 2.7410002
2.2854199 0 2.7310002
2.2916851 0 2.723
2.3021059 0 2.72
2.3133492 0 2.7180002
2.3245735 0 2.7160001
2.3375001 0 2.7160001
2.3504267 0 2.7160001
2.3729253 0 2.7270002
2.3850288 0 2.7260001
2.3988829 0 2.7270002
2.4109774 0 2.7260001
2.4621868 0 2.7690001
2.5030785 0 2.8000002
2.5865047 0 2.878
2.6526036 0 2.9360001
2.7746572 0 3.0550001
2.8677149 0 3.141
2.9414003 0 3.2050002
2.9640343 0 3.2130001
2.9811811 0 3.2150002
2.9983466 0 3.2170002
3.0220885 0 3.2260001
0 0 0
0 0 0
0 0 0
0 0 0
3.2275767 0 3.3600001
3.2435684 0 3.3600001
3.2605302 0 3.3610001
3.2784762 0 3.3630002
0 0 0
0 0 0
0 0 0
-0 0 0
-0 0 0
-0 0 0
-0 0 0
-0 0 0
-0 0 0
-0 0 0
-0 0 0
-0 0 0
-0 0 0
-2.1990602 0 2.2520001
-2.1883421 0 2.2520001
-2.1756899 0 2.25
-2.1505482 0 2.2350001
-2.1389534 0 2.2340002
-2.1397531 0 2.2460001
-2.1195841 0 2.2360001
-2.1098852 0 2.237
-2.100177 0 2.2380002
-2.0913925 0 2.24
-2.0835183 0 2.243
-2.0756154 0 2.2460001
-2.0851521 0 2.2680001
-2.0752723 0 2.2690001
-2.0644732 0 2.2690001
-2.053674 0 2.2690001
-2.0419748 0 2.2680001
-2.0302849 0 2.2670002
-2.0194952 0 2.2670002
-2.0095918 0 2.2680001
-1.9979161 0 2.2670002
-1.988003 0 2.2680001
-1.976337 0 2.2670002
-1.9646802 0 2.266
-1.952171 0 2.2640002
-1.9422531 0 2.2650001
-1.9323257 0 2.266
-1.9240848 0 2.2690001
-1.9149723 0 2.2710001
-1.9075176 0 2.2750001
-1.9000247 0 2.279
-1.8941516 0 2.2850001
-1.8873975 0 2.2900002
-1.8797761 0 2.2940001
-1.8729312 0 2.299
-1.8644192 0 2.302
-1.8566835 0 2.306
-1.8473091 0 2.3080001
-1.8371201 0 2.309
-1.8285033 0 2.312
-1.8182857 0 2.3130002
-1.8088398 0 2.3150001
-1.8102473 0 2.3310001
-1.8014686 0 2.3340001
-1.7926614 0 2.3370001
-1.7830634 0 2.3390002
-1.7734461 0 2.3410001
-0 0 0
-0 0 0
-0 0 0
-0 0 0
-0 0 0
-0 0 0
-0 0 0
-0 0 0
-0 0 0
-0 0 0
-0 0 0
-0 0 0
-0.5704633 0 0.82000005
-0.56656057 0 0.82000005
-0.56265783 0 0.82000005
-0.5587551 0 0.82000005
-0.55485237 0 0.82000005
-0.55094963 0 0.82000005
-0.54704696 0 0.82000005
-0.54314423 0 0.82000005
-0.53924149 0 0.82000005
-0.53533882 0 0.82000005
-0.53143609 0 0.82000005
-0.52753335 0 0.82000005
-0.52363068 0 0.82000005
-0.51972795 0 0.82000005
-0.51645422 0 0.82100004
-0.51317108 0 0.82200003
-0.5098784 0 0.82300001
-0.50657618 0 0.82400006
-0.50326443 0 0.82500005
-0.49994317 0 0.82600003
-0.49661237 0 0.82700002
-0.49267638 0 0.82700002
-0.48933133 0 0.82800007
-0.48597673 0 0.82900006
-0.48261267 0 0.83000004
-0.47923902 0 0.83100003
-0.47585589 0 0.83200002
-0.47246325 0 0.83300006
-0.46906111 0 0.83400005
-0.4656494 0 0.83500004
-0.46222818 0 0.83600003
-0.45879745 0 0.83700001
-0.45535722 0 0.83800006
-0.45190746 0 0.83900005
-0.44844821 0 0.84000003
-0.44497937 0 0.84100002
-0.44150108 0 0.84200007
-0.43801326 0 0.84300005
-0.43451589 0 0.84400004
-0.43100899 0 0.84500003
-0.42698732 0 0.84500003
-0.42296559 0 0.84500003
-0.41943967 0 0.84600002
-0.41590425 0 0.84700006
-0.41235933 0 0.84800005
-0.40880486 0 0.84900004
-0.40524083 0 0.85000002
-0.40166733 0 0.85100001
-0.39808434 0 0.85200006
-0.39449179 0 0.85300004
-0.39088973 0 0.85400003
-0.38727814 0 0.85500002
-0.38365704 0 0.85600007
-0.38002643 0 0.85700005
-0.37682498 0 0.85900003
-0.37317052 0 0.86000001
-0.36950663 0 0.86100006
-0.36583319 0 0.86200005
-0.36215019 0 0.86300004
-0.35887259 0 0.86500007
-0.35516584 0 0.86600006
-0.35144952 0 0.86700004
-0.34772372 0 0.86800003
-0.34398839 0 0.86900002
-0.34063464 0 0.87100005
-0.33726183 0 0.87300003
-0.33387002 0 0.87500006
-0.33008233 0 0.87600005
-0.32628512 0 0.87700003
-0.32247838 0 0.87800002
-0.3186622 0 0.87900007
-0.31483644 0 0.88000005
-0.31100115 0 0.88100004
-0.30715635 0 0.88200003
-0.30330205 0 0.88300002
-0.29943821 0 0.88400006
-0.29556486 0 0.88500005
-0.291682 0 0.88600004
-0.28778961 0 0.88700002
-0.28388771 0 0.88800007
-0.27997631 0 0.88900006
-0.27605534 0 0.89000005
-0.27212489 0 0.89100003
-0.26848558 0 0.89300007
-0.26482719 0 0.89500004
-0.26114979 0 0.89700001
-0.25716701 0 0.89800006
-0.25345626 0 0.90000004
-0.24972653 0 0.90200007
-0.24570565 0 0.90300006
-0.24194255 0 0.90500003
-0.23816046 0 0.90700006
-0.2341015 0 0.90800005
-0.230033 0 0.90900004
-0.22595499 0 0.91000003
-0.22211103 0 0.91200006
-0.21800922 0 0.91300005
-0.2138979 0 0.91400003
-0.20977706 0 0.91500002
-0.20564671 0 0.91600007
-0.20150684 0 0.91700006
-0.19735745 0 0.91800004
-0.19319852 0 0.91900003
-0.18903008 0 0.92000002
-0.18505286 0 0.92200005
-0.18086062 0 0.92300004
-0.17665887 0 0.92400002
-0.17244762 0 0.92500007
-0.16822682 0 0.92600006
-0.16346578 0 0.92400002
-0 0 0
-0 0 0
-0 0 0
-0 0 0
-0 0 0
-0 0 0
-0.3871325 0 2.6960001
-0.37513417 0 2.7020001
-0.36214015 0 2.7010002
-0.34902632 0 2.6990001
-0.335807 0 2.6960001
-0.32309541 0 2.697
-0.31014428 0 2.6960001
-0.29764372 0 2.6990001
-0.28522015 0 2.7030001
-0.27296004 0 2.7090001
-0.26025879 0 2.7110002
-0.24762976 0 2.7140002
-0.23488565 0 2.7160001
-0.22212255 0 2.7180002
-0.20934039 0 2.72
-0.19653919 0 2.7220001
-0.18365152 0 2.723
-0.17075433 0 2.7240002
-0.15784763 0 2.7250001
-0.14477189 0 2.723
-0.13171521 0 2.7210002
-0.11850297 0 2.7150002
-0.10507561 0 2.7020001
-0.092318065 0 2.7050002
-0.078915209 0 2.687
-0.066003628 0 2.6820002
-0.053159483 0 2.6780002
-0.040383596 0 2.6760001
-0.02764741 0 2.6760001
-0.014916796 0 2.677
-0.002177478 0 2.6790001
0.010588772 0 2.6830001
0.023602042 0 2.7110002
0.036881838 0 2.7390001
0.050519288 0 2.7720001
0.063712381 0 2.7720001
0.07798747 0 2.8110001
0.091366172 0 2.8110001
0.10504299 0 2.8190002
0.11921616 0 2.8370001
0.13253149 0 2.8330002
0.14627258 0 2.8380001
0.16006131 0 2.8430002
0.17414185 0 2.8520002
0.1881106 0 2.858
0.20213647 0 2.8640001
0.21621947 0 2.8700001
0.23043965 0 2.8770001
0.24523561 0 2.8900001
0.25934878 0 2.8940001
0.27595377 0 2.924
0.28996944 0 2.9250002
0.3039946 0 2.9260001
0.31770331 0 2.924
0.33127964 0 2.9210002
0.34482735 0 2.9180002
0.35846943 0 2.9160001
0.37170944 0 2.9110003
0.38490185 0 2.9060001
0.39818382 0 2.9020002
0.41128579 0 2.8970001
0.42448691 0 2.8930001
0.43674096 0 2.8830001
0.44608742 0 2.855
0.46015859 0 2.858
0.47027984 0 2.8370001
0.47696128 0 2.7970002
0.48922166 0 2.7910001
0.50268519 0 2.7920001
0.51597345 0 2.7920001
0.52243745 0 2.756
0.5347771 0 2.7520001
0.54747689 0 2.7500002
0.55995375 0 2.7470002
0.57240206 0 2.7440002
0.58482176 0 2.7410002
0.58063585 0 2.6620002
0.58149278 0 2.6090002
0.57182902 0 2.5120001
0.56960845 0 2.4510002
0.57060164 0 2.4060001
0.58060127 0 2.4000001
0.58215678 0 2.3600001
0.59238327 0 2.3560002
0.60334021 0 2.355
0.61480963 0 2.3560002
0.62681991 0 2.3590002
0.63885885 0 2.3620002
0.65367854 0 2.375
0.66806215 0 2.3860002
0.68112659 0 2.3920002
0.69511664 0 2.401
0.70801538 0 2.4060001
0.7269423 0 2.4310002
0.74398059 0 2.4490001
0.76581854 0 2.4820001
0.78828382 0 2.516
0.81298125 0 2.5560002
0.83160293 0 2.5760002
0.84386313 0 2.5760002
0.85612333 0 2.5760002
0.86838365 0 2.5760002
0.87961829 0 2.5730002
0.89082432 0 2.5700002
0.90305609 0 2.5700002
0.9145754 0 2.5680001
0.92968482 0 2.5760002
0.93719149 0 2.5630002
0.96642923 0 2.6090002
1.0032332 0 2.674
1.0436956 0 2.7470002
1.1060113 0 2.8750002
1.156693 0 2.97
1.2070966 0 3.062
1.2523912 0 3.1390002
1.2863066 0 3.1860001
1.3169931 0 3.2240002
1.3331639 0 3.2260001
1.3639845 0 3.2630002
1.3972708 0 3.3050001
1.4155658 0 3.3110001
1.432189 0 3.3130002
1.4488308 0 3.3150001
1.4637247 0 3.3130002
1.4759201 0 3.3050001
1.4907473 0 3.3030002
1.5073798 0 3.3050001
1.5226488 0 3.3040001
1.5379083 0 3.3030002
1.5526879 0 3.3010001
1.5935805 0 3.3540001
1.6061844 0 3.3470001
1.6429539 0 3.3900001
1.6600672 0 3.3920002
1.6707752 0 3.381
1.7103163 0 3.4280002
1.7311648 0 3.4370003
1.7485398 0 3.4390001
1.763881 0 3.4370003
1.7817929 0 3.4400001
1.7992109 0 3.4420002
1.817175 0 3.4450002
1.835168 0 3.4480002
1.8515786 0 3.4480002
1.8690723 0 3.45
1.886039 0 3.4510002
1.9046688 0 3.4550002
1.9216685 0 3.4560001
1.9325091 0 3.4460001
1.9573935 0 3.4610002
1.9801391 0 3.4720001
1.9995394 0 3.4770002
2.0149281 0 3.4750001
2.0273747 0 3.4680002
2.0491848 0 3.4770002
2.063951 0 3.4740002
2.0583267 0 3.4370003
2.0740812 0 3.4360001
2.0886095 0 3.4330001
2.1037221 0 3.4310002
2.1175799 0 3.427
2.1357586 0 3.4300001
2.1458089 0 3.4200001
2.1627185 0 3.4210002
2.1790004 0 3.4210002
2.197849 0 3.4250002
2.2160895 0 3.4280002
2.2363122 0 3.4340003
2.2224805 0 3.3880002
2.2425699 0 3.3940001
2.2254481 0 3.3440001
2.2400231 0 3.3420002
2.2383785 0 3.3160002
0 0 0
0 0 0
1.9438313 0 2.8200002
1.9093627 0 2.7510002
1.8749359 0 2.6830001
1.8553407 0 2.6370001
1.8671831 0 2.6360002
1.8355166 0 2.5740001
1.8463316 0 2.572
1.8571278 0 2.5700002
1.8679045 0 2.5680001
1.8793947 0 2.5670002
1.8916121 0 2.5670002
1.9045712 0 2.5680001
1.9309751 0 2.5870001
1.9793442 0 2.6350002
2.0281701 0 2.6830001
2.086581 0 2.743
2.1287234 0 2.7810001
2.1758485 0 2.825
2.1908438 0 2.8270001
2.2050784 0 2.8280001
2.218538 0 2.8280001
2.2296298 0 2.825
2.2406931 0 2.822
2.2517281 0 2.8190002
2.2394319 0 2.7870002
2.251888 0 2.786
2.2651477 0 2.786
2.2555089 0 2.7580001
2.244781 0 2.7290001
2.2676973 0 2.7410002
2.2782466 0 2.7380002
2.2812357 0 2.7260001
2.2900021 0 2.7210002
2.3012595 0 2.7190001
2.3124983 0 2.7170002
2.3245735 0 2.7160001
2.3392215 0 2.7180002
2.3521576 0 2.7180002
2.3659637 0 2.7190001
2.3806543 0 2.7210002
2.3962438 0 2.7240002
2.4109774 0 2.7260001
2.4426246 0 2.7470002
