# .PCD v0.7 - Point Cloud Data file format
VERSION 0.7
FIELDS x y z
SIZE 4 4 4
TYPE F F F
COUNT 1 1 1
WIDTH 1746
HEIGHT 1
VIEWPOINT 0 0 0 1 0 0 0
POINTS 1746
DATA ascii
0 -0 0
1.0669496 -1.1683742 3.2570002
1.0841126 -1.1701678 3.2620001
1.0821084 -1.1515141 3.21
1.0871302 -1.1407522 3.1800001
1.1015719 -1.1400348 3.1780002
1.1117779 -1.1350125 3.164
1.1204261 -1.1285555 3.1460001
1.1310683 -1.1242508 3.1340001
1.1448874 -1.1231745 3.131
1.153492 -1.1170762 3.1140001
1.154431 -1.1038033 3.0770001
1.1538782 -1.0894543 3.0370002
1.1421729 -1.0650607 2.9690001
1.1321571 -1.0428197 2.9070001
1.1164263 -1.0159152 2.832
1.1063654 -0.99475032 2.7730002
1.0949352 -0.97286791 2.7120001
1.0878265 -0.95529032 2.6630001
1.0831439 -0.94022375 2.6210001
1.084332 -0.93053812 2.5940001
1.0949868 -0.92910326 2.5900002
1.0983354 -0.92156994 2.569
1.1088332 -0.92013502 2.5650001
1.120604 -0.91977632 2.5640001
1.1195529 -0.90901452 2.5340002
1.1311667 -0.90865582 2.5330002
1.1382575 -0.90470976 2.5220001
1.1456999 -0.90112251 2.5120001
1.1442909 -0.89071941 2.483
1.1528492 -0.88820833 2.4760001
1.1604002 -0.88497972 2.467
1.169291 -0.88282746 2.4610002
1.1790842 -0.88139248 2.457
1.1893243 -0.88031638 2.4540002
1.1995356 -0.87924021 2.4510002
1.2102126 -0.87852269 2.4490001
1.2198727 -0.87708783 2.4450002
1.2299984 -0.87601161 2.4420002
1.2395872 -0.87457675 2.4380002
1.249651 -0.87350053 2.4350002
1.2617581 -0.87385923 2.4360001
1.2561022 -0.86202127 2.4030001
1.2559344 -0.85412925 2.381
1.264073 -0.85197687 2.375
1.2587297 -0.84085637 2.3440001
1.2742198 -0.84372616 2.352
1.284321 -0.84300876 2.3500001
1.2955056 -0.84300876 2.3500001
1.3078021 -0.84372616 2.352
1.3178748 -0.84300876 2.3500001
1.328494 -0.84265006 2.3490002
1.3396738 -0.84265006 2.3490002
1.3514286 -0.84300876 2.3500001
1.3637729 -0.84372616 2.352
1.3755516 -0.84408492 2.3530002
1.3879292 -0.84480232 2.355
1.3997319 -0.84516108 2.3560002
1.4121426 -0.84587848 2.358
1.423969 -0.8462373 2.3590002
1.4345881 -0.84587848 2.358
1.4329345 -0.83834529 2.3370001
1.4409677 -0.83655161 2.332
1.449576 -0.83511668 2.3280001
1.4587736 -0.83404052 2.325
1.468575 -0.83332312 2.3230002
1.4783572 -0.8326056 2.3210001
1.4881202 -0.83188814 2.319
1.4978645 -0.83117074 2.3170002
1.5069383 -0.83009458 2.3140001
1.5140157 -0.82794219 2.3080001
1.5223575 -0.82650727 2.3040001
1.5299956 -0.82471359 2.299
1.5369159 -0.82256132 2.2930002
1.5444541 -0.82076764 2.2880001
1.5526246 -0.81933272 2.2840002
1.5545959 -0.81466931 2.2710001
1.5523078 -0.80785346 2.2520001
1.5616379 -0.80713594 2.25
1.5723464 -0.80713594 2.25
1.5879804 -0.80964714 2.2570002
1.600139 -0.81036454 2.2590001
1.6123167 -0.81108201 2.2610002
1.6245134 -0.81179941 2.263
1.6454008 -0.81682169 2.2770002
1.6598747 -0.81861526 2.2820001
1.672932 -0.81969142 2.2850001
1.6852813 -0.82040894 2.2870002
1.6954243 -0.82005012 2.286
1.70929 -0.8214851 2.2900002
1.7194378 -0.82112634 2.289
1.7303321 -0.82112634 2.289
1.7404656 -0.82076764 2.2880001
1.7513553 -0.82076764 2.2880001
1.7591641 -0.81933272 2.2840002
1.7700344 -0.81933272 2.2840002
1.7816846 -0.81969142 2.2850001
1.7949134 -0.82076764 2.2880001
0 -0 0
0 -0 0
0 -0 0
0 -0 0
0 -0 0
0 -0 0
0 -0 0
0 -0 0
0 -0 0
0 -0 0
0 -0 0
0 -0 0
0 -0 0
0 -0 0
0 -0 0
0 -0 0
0 -0 0
0 -0 0
0 -0 0
0 -0 0
0 -0 0
0 -0 0
0 -0 0
0 -0 0
0 -0 0
0 -0 0
0 -0 0
0 -0 0
0 -0 0
0 -0 0
0 -0 0
0 -0 0
0 -0 0
0 -0 0
0 -0 0
0 -0 0
0 -0 0
0 -0 0
0 -0 0
0 -0 0
0 -0 0
0 -0 0
0 -0 0
-0 -0 0
-0 -0 0
-0 -0 0
-0 -0 0
-0 -0 0
-0 -0 0
-3.3121276 -1.1776505 3.3270001
-3.296293 -1.1776505 3.3270001
-3.2804587 -1.1776505 3.3270001
-3.3225179 -1.1985346 3.3860002
-3.3064024 -1.1985346 3.3860002
-3.2932024 -1.1995965 3.3890002
-3.3254213 -1.2172948 3.4390001
-3.3109782 -1.2180028 3.4410002
-3.2993884 -1.2197726 3.4460001
-3.2887034 -1.2218964 3.4520001
-3.2732217 -1.2222503 3.4530001
-3.2596173 -1.2233123 3.4560001
-3.2450457 -1.2240202 3.4580002
-3.232322 -1.2254361 3.4620001
-3.2158451 -1.2254361 3.4620001
-3.2012162 -1.2261441 3.4640002
-3.1865683 -1.2268519 3.4660001
-3.1956818 -1.2367631 3.4940002
-3.1872411 -1.2399489 3.5030003
-3.1986268 -1.2509218 3.5340002
-3.1872094 -1.2530456 3.5400002
-3.1775255 -1.2558773 3.5480001
-3.1597483 -1.2555233 3.5470002
-3.1472971 -1.2572932 3.5520003
-3.1321542 -1.2580011 3.5540001
-3.1169925 -1.2587091 3.5560002
-3.1052988 -1.2608329 3.5620003
-3.0970159 -1.2643726 3.5720003
-3.0869133 -1.2672043 3.5800002
-3.0664449 -1.2657884 3.5760002
-3.0528359 -1.2672043 3.5800002
-3.0383413 -1.2682662 3.5830002
-3.0533311 -1.2817171 3.6210003
-3.0386124 -1.2827789 3.6240001
-3.0246992 -1.2841948 3.6280003
-3.0090899 -1.2849027 3.6300001
-2.9934618 -1.2856107 3.6320002
-2.9712589 -1.2834868 3.6260002
-2.9556305 -1.2841948 3.6280003
-2.9383636 -1.2841948 3.6280003
-2.923512 -1.2852567 3.6310003
-2.9150348 -1.2891504 3.6420002
-2.8992925 -1.2898582 3.6440003
-2.8859034 -1.2916281 3.6490002
-2.8724668 -1.2933979 3.6540003
-2.8542945 -1.293044 3.6530001
-2.8532171 -1.3004773 3.6740003
-2.8287842 -1.2972915 3.6650002
-2.8105741 -1.2969376 3.6640003
-2.8152428 -1.3072026 3.6930001
-2.7999389 -1.3082645 3.6960001
-2.8064377 -1.3195915 3.7280002
-2.7879467 -1.3192376 3.7270002
-2.8103454 -1.3383518 3.7810001
-2.8085978 -1.3461391 3.8030002
-2.8220494 -1.3613597 3.8460002
-2.8037446 -1.3613597 3.8460002
-2.8013735 -1.3691471 3.8680003
-2.782964 -1.3691471 3.8680003
-2.7645545 -1.3691471 3.8680003
-2.7461452 -1.3691471 3.8680003
-2.7277358 -1.3691471 3.8680003
-2.7093263 -1.3691471 3.8680003
-2.690917 -1.3691471 3.8680003
-2.6883988 -1.3772883 3.8910003
-2.6849756 -1.3850756 3.9130001
-2.6820245 -1.3932167 3.9360001
-2.6788542 -1.401358 3.9590001
-2.6761372 -1.4098533 3.9830003
-2.6725245 -1.4179945 4.006
-2.6693552 -1.4264898 4.0300002
-2.666615 -1.435339 4.0550003
-2.6473157 -1.435339 4.0550003
-2.6280162 -1.435339 4.0550003
-2.6087167 -1.435339 4.0550003
-2.5894175 -1.435339 4.0550003
-2.570118 -1.435339 4.0550003
-2.5508184 -1.435339 4.0550003
-2.5315194 -1.435339 4.0550003
-2.5122199 -1.435339 4.0550003
-2.5076747 -1.4438341 4.079
-2.4882612 -1.4438341 4.079
-2.483979 -1.4526833 4.1040001
-2.4950719 -1.4707358 4.1550002
-2.4752967 -1.4707358 4.1550002
-2.4702959 -1.4795849 4.1800003
-2.4504013 -1.4795849 4.1800003
-2.4305072 -1.4795849 4.1800003
-2.4106128 -1.4795849 4.1800003
-2.3764198 -1.4707358 4.1550002
-2.3566444 -1.4707358 4.1550002
-2.3368692 -1.4707358 4.1550002
-2.3310354 -1.4795849 4.1800003
-2.3260694 -1.4891421 4.2070003
-2.3202984 -1.4983453 4.2330003
-2.3148232 -1.5079024 4.2600002
-2.3090909 -1.5174594 4.2870002
-2.3031018 -1.5270165 4.3140001
-2.2825696 -1.5270165 4.3140001
-2.2620375 -1.5270165 4.3140001
-2.2415054 -1.5270165 4.3140001
-2.2209733 -1.5270165 4.3140001
-2.2004411 -1.5270165 4.3140001
-2.1799092 -1.5270165 4.3140001
-2.1593771 -1.5270165 4.3140001
-2.138845 -1.5270165 4.3140001
-2.1183128 -1.5270165 4.3140001
-2.1113963 -1.5369276 4.342
-2.0907309 -1.5369276 4.342
-2.0700655 -1.5369276 4.342
-2.0630882 -1.5471928 4.3710003
-2.0553675 -1.5571039 4.3990002
-2.0344307 -1.5571039 4.3990002
-2.0267677 -1.5673689 4.428
-2.0188289 -1.577634 4.4570003
-2.0110619 -1.5882529 4.487
-1.9897065 -1.5882529 4.487
-1.9683511 -1.5882529 4.487
-1.9469955 -1.5882529 4.487
-1.9256401 -1.5882529 4.487
-1.9042847 -1.5882529 4.487
-1.8829291 -1.5882529 4.487
-1.8740202 -1.5988721 4.5170002
-1.8652358 -1.609845 4.5480003
-1.8435899 -1.609845 4.5480003
-1.8343627 -1.6208179 4.579
-1.8248407 -1.631791 4.6100001
-1.8154144 -1.643118 4.6420002
-1.8056837 -1.6544449 4.6740003
-1.7834383 -1.6544449 4.6740003
-1.7736273 -1.6661259 4.7070003
-1.7635024 -1.6778069 4.7400002
-1.7530631 -1.6894878 4.7730002
-1.743035 -1.7018765 4.8080001
-1.7448379 -1.7263005 4.8770003
-1.7343343 -1.7390432 4.9130001
-1.7363737 -1.7648828 4.9860001
-1.7384051 -1.7914305 5.0610003
-1.7403998 -1.8186859 5.138
-1.74233 -1.8466495 5.2170005
-1.7309978 -1.8611621 5.2580004
-1.7195997 -1.8760287 5.3000002
-1.6943748 -1.8760287 5.3000002
-1.66915 -1.8760287 5.3000002
-1.6439251 -1.8760287 5.3000002
-1.6058729 -1.8611621 5.2580004
-1.5808479 -1.8611621 5.2580004
-1.5318551 -1.8324907 5.177
-1.4958613 -1.8186859 5.138
-1.4602389 -1.8048813 5.0990005
-1.4359707 -1.8048813 5.0990005
-0 -0 0
-0 -0 0
-0 -0 0
-0 -0 0
-0 -0 0
-0 -0 0
-0.65129668 -0.92845726 2.6230001
-0.637595 -0.92668736 2.618
-0.6244185 -0.92562544 2.615
-0.61150461 -0.92491758 2.6130002
-0.59929752 -0.92527151 2.6140001
-0.5870809 -0.92562544 2.615
-0.57507461 -0.92633343 2.6170001
-0.56369418 -0.92810333 2.6220002
-0.55247629 -0.93022704 2.628
-0.54120135 -0.93235087 2.6340001
-0.52966863 -0.93412071 2.6390002
-0.51828426 -0.93624455 2.6450002
-0.50665152 -0.93801433 2.6500001
-0.4947848 -0.93943018 2.654
-0.48324335 -0.94155401 2.6600001
-0.47129095 -0.94296986 2.664
-0.45947269 -0.94473976 2.6690001
-0.44727197 -0.94580168 2.6720002
-0.43488005 -0.94650954 2.674
-0.42246917 -0.94721752 2.6760001
-0.40957987 -0.94686359 2.6750002
-0.39655173 -0.94615561 2.6730001
-0.38339901 -0.94509369 2.6700001
-0.36888653 -0.94049209 2.6570001
-0.3554363 -0.93836832 2.651
-0.34113798 -0.93376672 2.638
-0.3279599 -0.93199694 2.6330001
-0.31482935 -0.93022704 2.628
-0.30174646 -0.92845726 2.6230001
-0.2888214 -0.92704141 2.6190002
-0.2758289 -0.92527151 2.6140001
-0.26278323 -0.92314768 2.608
-0.24960268 -0.92031598 2.6000001
-0.23649827 -0.91748422 2.592
-0.22381593 -0.91606832 2.5880001
-0.20945552 -0.90721917 2.5630002
-0 -0 0
-0 -0 0
-0 -0 0
-0 -0 0
-0 -0 0
-0 -0 0
-0 -0 0
-0 -0 0
-0.052343365 -0.47644052 1.3460001
-0.045868941 -0.47573256 1.3440001
-0.039442923 -0.4753786 1.3430001
-0.032977205 -0.47431669 1.34
-0.026540039 -0.47325477 1.337
-0.020146525 -0.47254685 1.335
-0.013772047 -0.47183892 1.3330001
-0.0074166073 -0.471131 1.3310001
-0.0010810174 -0.470777 1.33
0.0052450537 -0.47042307 1.3290001
0.011561605 -0.47006908 1.3280001
0.017882103 -0.47006908 1.3280001
0.024202602 -0.47006908 1.3280001
0.030523103 -0.47006908 1.3280001
0.036843598 -0.47006908 1.3280001
0.043164097 -0.47006908 1.3280001
0.049484596 -0.47006908 1.3280001
0.05584712 -0.47042307 1.3290001
0.062172379 -0.47042307 1.3290001
0.068549171 -0.470777 1.33
0.074879192 -0.470777 1.33
0.08127027 -0.471131 1.3310001
0.087605052 -0.471131 1.3310001
0.093939818 -0.471131 1.3310001
0.10027461 -0.471131 1.3310001
0.10652928 -0.470777 1.33
0.11285929 -0.470777 1.33
0.11918931 -0.470777 1.33
0.12551934 -0.470777 1.33
0.13184935 -0.470777 1.33
0.13828327 -0.471131 1.3310001
0.14461803 -0.471131 1.3310001
0.15095282 -0.471131 1.3310001
0.1572876 -0.471131 1.3310001
0.16374528 -0.47148493 1.332
0.17008483 -0.47148493 1.332
0.17642437 -0.47148493 1.332
0.18276389 -0.47148493 1.332
0.18924542 -0.47183892 1.3330001
0.19558972 -0.47183892 1.3330001
0.20193399 -0.47183892 1.3330001
0.20843455 -0.47219291 1.3340001
0.21478362 -0.47219291 1.3340001
0.22113267 -0.47219291 1.3340001
0.22748172 -0.47219291 1.3340001
0.23400605 -0.47254685 1.335
0.24035987 -0.47254685 1.335
0.24671367 -0.47254685 1.335
0.25306749 -0.47254685 1.335
0.25942132 -0.47254685 1.335
0.26577511 -0.47254685 1.335
0.27212894 -0.47254685 1.335
0.27848276 -0.47254685 1.335
0.28483656 -0.47254685 1.335
0.29140851 -0.47290084 1.3360001
0.2977671 -0.47290084 1.3360001
0.30412564 -0.47290084 1.3360001
0.31048423 -0.47290084 1.3360001
0.31684282 -0.47290084 1.3360001
0.32344326 -0.47325477 1.337
0.3300533 -0.47360876 1.3380001
0.33692425 -0.47431669 1.34
0.34355807 -0.47467068 1.3410001
0.35072333 -0.47573256 1.3440001
0.35765138 -0.47644052 1.3460001
0.36432806 -0.47679448 1.3470001
0.37128943 -0.47750241 1.3490001
0.37798986 -0.47785637 1.35
0.38413033 -0.47750241 1.3490001
0.39055076 -0.47750241 1.3490001
0 -0 0
0 -0 0
0 -0 0
0 -0 0
0 -0 0
0 -0 0
0 -0 0
0 -0 0
1.0645043 -1.1337584 3.2030001
1.0814342 -1.1355283 3.2080002
1.0861045 -1.1245553 3.177
1.1005319 -1.1238474 3.1750002
1.1124808 -1.1206617 3.1660001
1.1211385 -1.1142904 3.1480002
1.1310683 -1.1093347 3.1340001
1.1448874 -1.1082728 3.131
1.1531216 -1.1019014 3.1130002
1.1529304 -1.0877427 3.0730002
1.1538782 -1.0749998 3.0370002
1.1421729 -1.05093 2.9690001
1.1290414 -1.0261524 2.8990002
1.1160322 -1.0020825 2.8310001
1.1055675 -0.98084444 2.7710001
1.0941277 -0.95925242 2.71
1.0882349 -0.94296986 2.664
1.0835572 -0.92810333 2.6220002
1.083914 -0.91783822 2.5930002
1.0937185 -0.91571438 2.5870001
1.1000457 -0.91075885 2.5730002
1.1101302 -0.90898901 2.5680001
1.1214782 -0.90828109 2.5660002
1.1199946 -0.89730805 2.5350001
1.1316133 -0.89695412 2.5340002
1.1405143 -0.89447635 2.5270002
1.1443316 -0.88810492 2.5090001
1.1465951 -0.88067162 2.4880002
1.1542461 -0.87748587 2.4790001
1.1599298 -0.87288427 2.4660001
1.1683407 -0.87040651 2.4590001
1.1781245 -0.86899066 2.4550002
1.1878703 -0.86757481 2.4510002
1.1980674 -0.86651289 2.4480002
1.2087301 -0.86580497 2.4460001
1.2183759 -0.86438912 2.4420002
1.2284874 -0.86332721 2.4390001
1.2380618 -0.86191136 2.4350002
1.2481112 -0.86084944 2.4320002
1.248291 -0.85306209 2.4100001
1.2550567 -0.8498764 2.401
1.2538245 -0.84138119 2.3770001
1.2603474 -0.83819544 2.368
1.2657107 -0.83430183 2.3570001
1.2736779 -0.832178 2.3510001
1.2832278 -0.83111608 2.348
1.2938517 -0.83076215 2.3470001
1.3066901 -0.83182406 2.3500001
1.3167531 -0.83111608 2.348
1.3279283 -0.83111608 2.348
1.3391033 -0.83111608 2.348
1.3514286 -0.83182406 2.3500001
1.3637729 -0.83253193 2.352
1.3761362 -0.83323991 2.3540001
1.3879292 -0.83359385 2.355
1.4003259 -0.83430183 2.3570001
1.4133404 -0.83536375 2.3600001
1.423969 -0.83500981 2.3590002
1.4345881 -0.83465576 2.358
1.4501027 -0.83713353 2.365
1.4409677 -0.82545263 2.332
1.449576 -0.82403678 2.3280001
1.4587736 -0.82297486 2.325
1.4679427 -0.82191294 2.322
1.4777203 -0.82120502 2.3200002
1.4868369 -0.82014316 2.3170002
1.4991573 -0.82085103 2.319
1.5121481 -0.82191294 2.322
1.5113918 -0.81554157 2.3040001
1.5230181 -0.8158955 2.3050001
1.5313267 -0.81447965 2.3010001
1.5395969 -0.8130638 2.2970002
1.5471542 -0.8112939 2.2920001
1.5560234 -0.81023198 2.289
1.5443277 -0.79855108 2.256
1.5523078 -0.79713523 2.2520001
1.5616379 -0.79642725 2.25
1.5716476 -0.79607332 2.2490001
1.5879804 -0.79890507 2.2570002
1.600139 -0.799613 2.2590001
1.6130297 -0.80067492 2.2620001
1.6259491 -0.80173683 2.2650001
1.6432328 -0.80492252 2.2740002
1.6576924 -0.8066923 2.279
1.6707356 -0.80775422 2.2820001
1.6830705 -0.8084622 2.2840002
1.6946827 -0.80881613 2.2850001
1.7048115 -0.8084622 2.2840002
1.7119261 -0.8066923 2.279
1.721261 -0.80598444 2.2770002
1.7313373 -0.80563045 2.276
1.7421697 -0.80563045 2.276
1.7537726 -0.80598444 2.2770002
1.7669346 -0.80704635 2.2800002
1.7801251 -0.80810815 2.283
1.7949134 -0.80987805 2.2880001
0 -0 0
0 -0 0
0 -0 0
0 -0 0
0 -0 0
0 -0 0
0 -0 0
0 -0 0
0 -0 0
0 -0 0
0 -0 0
0 -0 0
0 -0 0
0 -0 0
0 -0 0
0 -0 0
0 -0 0
0 -0 0
0 -0 0
0 -0 0
0 -0 0
0 -0 0
0 -0 0
0 -0 0
0 -0 0
0 -0 0
0 -0 0
0 -0 0
0 -0 0
0 -0 0
0 -0 0
0 -0 0
0 -0 0
0 -0 0
0 -0 0
0 -0 0
0 -0 0
0 -0 0
0 -0 0
0 -0 0
0 -0 0
0 -0 0
0 -0 0
-0 -0 0
-0 -0 0
-0 -0 0
-0 -0 0
-0 -0 0
-3.5900381 -1.2533085 3.5890002
-3.3111322 -1.1614667 3.3260002
-3.2953024 -1.1614667 3.3260002
-3.2794726 -1.1614667 3.3260002
-3.2901366 -1.1708953 3.3530002
-3.2761312 -1.1715938 3.3550003
-3.2922308 -1.1831177 3.3880002
-3.3186526 -1.1984829 3.4320002
-3.3119402 -1.2019749 3.4420002
-3.2993884 -1.2033718 3.4460001
-3.2925143 -1.2068638 3.4560001
-3.2741699 -1.2061654 3.4540002
-3.2586741 -1.2065146 3.4550002
-3.2441072 -1.207213 3.4570003
-3.2304549 -1.2082607 3.4600003
-3.2149162 -1.2086098 3.4610002
-3.2002921 -1.2093083 3.4630001
-3.1847296 -1.2096575 3.4640002
-3.1956818 -1.2201338 3.4940002
-3.1845114 -1.222229 3.5000002
-3.1732841 -1.2243242 3.5060003
-3.1565979 -1.2243242 3.5060003
-3.1434934 -1.2257211 3.5100002
-3.1303511 -1.2271179 3.5140002
-3.1162848 -1.2281655 3.5170002
-3.1013086 -1.228864 3.5190001
-3.0863132 -1.2295624 3.5210001
-3.1035552 -1.2431815 3.5600002
-3.0970159 -1.247372 3.5720003
-3.0877755 -1.2505149 3.5810001
-3.0835948 -1.255753 3.5960002
-3.0767131 -1.2599435 3.6080003
-3.0688689 -1.2637848 3.6190002
-3.0541744 -1.2648324 3.6220002
-3.0436432 -1.267626 3.6300001
-3.0305352 -1.2693721 3.6350002
-3.0165505 -1.2707689 3.6390002
-3.0025277 -1.2721658 3.6430001
-3.0032167 -1.2798483 3.6650002
-2.9849589 -1.2794992 3.6640003
-2.9642806 -1.2781023 3.6600001
-2.9460561 -1.2777531 3.6590002
-2.9230385 -1.2753086 3.6520002
-2.9064529 -1.2756579 3.6530001
-2.8914394 -1.2767055 3.6560001
-2.8740389 -1.2767055 3.6560001
-2.8550761 -1.2760071 3.6540003
-2.8516638 -1.2822928 3.6720002
-2.8272405 -1.2791499 3.6630001
-2.8098071 -1.2791499 3.6630001
-2.8144805 -1.289277 3.6920002
-2.7999389 -1.2906737 3.6960001
-2.805685 -1.3014992 3.7270002
-2.8126321 -1.3130232 3.7600002
-2.8103454 -1.3203565 3.7810001
-2.8085978 -1.3280391 3.8030002
-2.8059065 -1.3353724 3.8240001
-2.8037446 -1.343055 3.8460002
-2.8013735 -1.3507377 3.8680003
-2.782964 -1.3507377 3.8680003
-2.7645545 -1.3507377 3.8680003
-2.7461452 -1.3507377 3.8680003
-2.7277358 -1.3507377 3.8680003
-2.7093263 -1.3507377 3.8680003
-2.690917 -1.3507377 3.8680003
-2.6725075 -1.3507377 3.8680003
-2.6698799 -1.3587694 3.8910003
-2.666352 -1.366452 3.9130001
-2.6632915 -1.3744838 3.9360001
-2.6600118 -1.3825155 3.9590001
-2.6571805 -1.3908967 3.9830003
-2.6534581 -1.3989283 4.006
-2.6501746 -1.4073094 4.0300002
-2.6309943 -1.4073094 4.0300002
-2.6280162 -1.4160396 4.0550003
-2.6087167 -1.4160396 4.0550003
-2.5894175 -1.4160396 4.0550003
-2.570118 -1.4160396 4.0550003
-2.5508184 -1.4160396 4.0550003
-2.5315194 -1.4160396 4.0550003
-2.5122199 -1.4160396 4.0550003
-2.4929204 -1.4160396 4.0550003
-2.4882612 -1.4244205 4.079
-2.483979 -1.4331508 4.1040001
-2.4644463 -1.4331508 4.1040001
-2.4752967 -1.4509604 4.1550002
-2.4555213 -1.4509604 4.1550002
-2.4357457 -1.4509604 4.1550002
-2.4159706 -1.4509604 4.1550002
-2.3961952 -1.4509604 4.1550002
-2.3764198 -1.4509604 4.1550002
-2.3566444 -1.4509604 4.1550002
-2.3368692 -1.4509604 4.1550002
-2.3170936 -1.4509604 4.1550002
-2.311141 -1.4596907 4.1800003
-2.3060467 -1.4691193 4.2070003
-2.3001518 -1.4781986 4.2330003
-2.294548 -1.4876273 4.2600002
-2.2886875 -1.4970559 4.2870002
-2.2825696 -1.5064845 4.3140001
-2.2620375 -1.5064845 4.3140001
-2.2415054 -1.5064845 4.3140001
-2.2209733 -1.5064845 4.3140001
-2.2004411 -1.5064845 4.3140001
-2.1799092 -1.5064845 4.3140001
-2.1593771 -1.5064845 4.3140001
-2.138845 -1.5064845 4.3140001
-2.1320617 -1.5162623 4.342
-2.1113963 -1.5162623 4.342
-2.1046951 -1.5263895 4.3710003
-2.0838916 -1.5263895 4.3710003
-2.076304 -1.5361673 4.3990002
-2.0553675 -1.5361673 4.3990002
-2.0344307 -1.5361673 4.3990002
-2.0267677 -1.5462942 4.428
-2.0188289 -1.5564213 4.4570003
-1.9976162 -1.5564213 4.4570003
-1.9764035 -1.5564213 4.4570003
-1.9551909 -1.5564213 4.4570003
-1.9339781 -1.5564213 4.4570003
-1.9127654 -1.5564213 4.4570003
-1.8915528 -1.5564213 4.4570003
-1.8829291 -1.5668975 4.487
-1.8615737 -1.5668975 4.487
-1.852522 -1.5773739 4.5170002
-1.8435899 -1.5881993 4.5480003
-1.8343627 -1.5990247 4.579
-1.8125695 -1.5990247 4.579
-1.8028997 -1.6098502 4.6100001
-1.7933213 -1.6210248 4.6420002
-1.7834383 -1.6321995 4.6740003
-1.7736273 -1.6437234 4.7070003
-1.7635024 -1.6552472 4.7400002
-1.7530631 -1.6667712 4.7730002
-1.743035 -1.6789933 4.8080001
-1.7448379 -1.7030889 4.8770003
-1.7470428 -1.7282318 4.9490004
-1.7363737 -1.7411524 4.9860001
-1.7384051 -1.7673432 5.0610003
-1.7403998 -1.7942321 5.138
-1.74233 -1.8218197 5.2170005
-1.7309978 -1.8361372 5.2580004
-1.7059727 -1.8361372 5.2580004
-1.6809478 -1.8361372 5.2580004
-1.6559229 -1.8361372 5.2580004
-1.6308978 -1.8361372 5.2580004
-1.5933509 -1.8218197 5.2170005
-1.5564947 -1.8078512 5.177
-1.5203152 -1.7942321 5.138
-1.4845071 -1.7806131 5.0990005
-1.4602389 -1.7806131 5.0990005
-0 -0 0
-0 -0 0
-0 -0 0
-0 -0 0
-0 -0 0
-0 -0 0
-0 -0 0
-0.6517933 -0.91667175 2.6250002
-0.63856924 -0.91562414 2.6220002
-0.62513483 -0.91422725 2.618
-0.6122067 -0.91352886 2.6160002
-0.5999853 -0.91387808 2.6170001
-0.58752996 -0.91387808 2.6170001
-0.57573384 -0.91492569 2.6200001
-0.56412411 -0.91632253 2.6240001
-0.55310696 -0.91876698 2.631
-0.54161233 -0.92051303 2.6360002
-0.52986932 -0.92190987 2.6400001
-0.51848018 -0.92400515 2.6460001
-0.50665152 -0.92540193 2.6500001
-0.4947848 -0.92679876 2.654
-0.4830617 -0.92854482 2.6590002
-0.47111404 -0.92994165 2.6630001
-0.45912835 -0.93133849 2.6670001
-0.44727197 -0.93308455 2.6720002
-0.43504271 -0.93413216 2.6750002
-0.42262703 -0.93483055 2.677
-0.40973297 -0.93448138 2.6760001
-0.39670005 -0.93378294 2.674
-0.38368621 -0.93308455 2.6720002
-0.36916423 -0.92854482 2.6590002
-0.35583854 -0.92679876 2.654
-0.34165525 -0.92260832 2.6420002
-0.3284581 -0.9208622 2.6370001
-0.31530857 -0.9191162 2.6320002
-0.30220661 -0.91737014 2.6270001
-0.29047558 -0.91981459 2.6340001
-0.27635649 -0.91457653 2.6190002
-0.26318628 -0.91213208 2.6120002
-0.24960268 -0.90794152 2.6000001
-0.23695448 -0.90689391 2.5970001
-0.22372946 -0.90340185 2.5870001
-0 -0 0
-0 -0 0
-0 -0 0
-0 -0 0
-0 -0 0
-0 -0 0
-0 -0 0
-0 -0 0
-0.058836829 -0.47073275 1.348
-0.052343365 -0.47003436 1.3460001
-0.045868941 -0.46933594 1.3440001
-0.039413553 -0.4686375 1.342
-0.032952596 -0.46758991 1.3390001
-0.026520191 -0.46654227 1.3360001
-0.020131435 -0.46584386 1.3340001
-0.013761715 -0.46514541 1.332
-0.0074110348 -0.46444702 1.33
-0.0010802046 -0.46409783 1.3290001
0.0052411067 -0.4637486 1.3280001
0.011552899 -0.46339938 1.327
0.017868638 -0.46339938 1.327
0.024202602 -0.4637486 1.3280001
0.030523103 -0.4637486 1.3280001
0.036843598 -0.4637486 1.3280001
0.043164097 -0.4637486 1.3280001
0.049484596 -0.4637486 1.3280001
0.055805098 -0.4637486 1.3280001
0.062172379 -0.46409783 1.3290001
0.068497635 -0.46409783 1.3290001
0.074822895 -0.46409783 1.3290001
0.081209205 -0.46444702 1.33
0.087539226 -0.46444702 1.33
0.093939818 -0.46479625 1.3310001
0.10027461 -0.46479625 1.3310001
0.10652928 -0.46444702 1.33
0.11285929 -0.46444702 1.33
0.11918931 -0.46444702 1.33
0.12551934 -0.46444702 1.33
0.13184935 -0.46444702 1.33
0.13817936 -0.46444702 1.33
0.14450938 -0.46444702 1.33
0.15095282 -0.46479625 1.3310001
0.1572876 -0.46479625 1.3310001
0.16362236 -0.46479625 1.3310001
0.16995715 -0.46479625 1.3310001
0.17629193 -0.46479625 1.3310001
0.18276389 -0.46514541 1.332
0.18924542 -0.46549463 1.3330001
0.19558972 -0.46549463 1.3330001
0.20193399 -0.46549463 1.3330001
0.20843455 -0.46584386 1.3340001
0.21478362 -0.46584386 1.3340001
0.22113267 -0.46584386 1.3340001
0.22748172 -0.46584386 1.3340001
0.23383078 -0.46584386 1.3340001
0.24017984 -0.46584386 1.3340001
0.24652888 -0.46584386 1.3340001
0.25287795 -0.46584386 1.3340001
0.25922701 -0.46584386 1.3340001
0.26577511 -0.46619305 1.335
0.27212894 -0.46619305 1.335
0.27848276 -0.46619305 1.335
0.28483656 -0.46619305 1.335
0.29140851 -0.46654227 1.3360001
0.2977671 -0.46654227 1.3360001
0.30412564 -0.46654227 1.3360001
0.31048423 -0.46654227 1.3360001
0.31707996 -0.46689147 1.337
0.3236852 -0.46724069 1.3380001
0.33029997 -0.46758991 1.3390001
0.33692425 -0.46793908 1.34
0.34381425 -0.4686375 1.342
0.35046235 -0.46898672 1.3430001
0.35738564 -0.46968514 1.345
0.36405757 -0.47003436 1.3460001
0.37073895 -0.47038358 1.3470001
0.3774299 -0.47073275 1.348
0.38384557 -0.47073275 1.348
0.39026123 -0.47073275 1.348
0.39638269 -0.47038358 1.3470001
0 -0 0
0 -0 0
0 -0 0
0 -0 0
0 -0 0
0 -0 0
0 -0 0
0 -0 0
1.0706469 -1.1090854 3.1760001
1.0861045 -1.1094347 3.177
1.1005319 -1.1087363 3.1750002
1.1166973 -1.1097839 3.1780002
1.1232752 -1.1014029 3.154
1.1307075 -1.0940696 3.1330001
1.1448874 -1.0933712 3.131
1.153492 -1.0874345 3.1140001
1.154431 -1.0745139 3.0770001
1.1534983 -1.0601964 3.0360003
1.1414036 -1.036101 2.9670002
1.1286521 -1.0120057 2.8980002
1.115638 -0.98825943 2.8300002
1.1015776 -0.96416408 2.7610002
1.093724 -0.94600523 2.7090001
1.087418 -0.92959249 2.6620002
1.0827308 -0.91492569 2.6200001
1.083496 -0.90514785 2.592
1.092873 -0.9027034 2.585
1.1009007 -0.89921129 2.575
1.1109948 -0.89746529 2.5700002
1.1214782 -0.89606851 2.5660002
1.1319236 -0.89467156 2.562
1.1316133 -0.88489377 2.5340002
1.1414168 -0.88314772 2.529
1.1447878 -0.87651283 2.5100002
1.1479777 -0.86987787 2.4910002
1.1533149 -0.86498898 2.4770002
1.1608706 -0.86184609 2.4680002
1.1683407 -0.85870314 2.4590001
1.1776446 -0.85695714 2.4540002
1.186901 -0.85521108 2.4490001
1.1970886 -0.85416347 2.4460001
1.2072475 -0.8531158 2.4430001
1.2168791 -0.85171902 2.4390001
1.2269763 -0.85067135 2.4360001
1.2365365 -0.84927458 2.4320002
1.2460585 -0.84787774 2.4280002
1.2508808 -0.84333801 2.4150002
1.2534885 -0.83740145 2.398
1.2585717 -0.833211 2.3860002
1.2582184 -0.82552838 2.3640001
1.2592667 -0.81889337 2.345
1.2725946 -0.82029027 2.3490002
1.2826813 -0.81959182 2.3470001
1.2933005 -0.81924266 2.3460002
1.3061341 -0.82029027 2.3490002
1.3167531 -0.81994104 2.348
1.3273628 -0.81959182 2.3470001
1.3391033 -0.81994104 2.348
1.3508536 -0.82029027 2.3490002
1.3631932 -0.82098866 2.3510001
1.3755516 -0.8216871 2.3530002
1.3879292 -0.82238549 2.355
1.40092 -0.8234331 2.358
1.4133404 -0.82413155 2.3600001
1.4245727 -0.82413155 2.3600001
1.4394553 -0.82622683 2.3660002
1.434774 -0.81714737 2.3400002
1.4415858 -0.81470293 2.3330002
1.4489534 -0.81260771 2.3270001
1.4575188 -0.81121087 2.3230002
1.4666784 -0.81016326 2.3200002
1.4758095 -0.80911559 2.3170002
1.4855534 -0.80841714 2.3150001
1.5010967 -0.81086159 2.322
1.5043335 -0.80667114 2.3100002
1.5140157 -0.8059727 2.3080001
1.5236789 -0.80527425 2.306
1.5326577 -0.8042267 2.3030002
1.5416077 -0.80317909 2.3000002
1.5498543 -0.80178219 2.296
1.5587426 -0.80073464 2.2930002
1.5436432 -0.78746468 2.2550001
1.5529971 -0.78676623 2.253
1.5630261 -0.78641707 2.2520001
1.5730454 -0.78606784 2.2510002
1.588684 -0.78851229 2.2580001
1.6008472 -0.78921068 2.26
1.6144561 -0.79060757 2.2640002
1.626667 -0.79130596 2.266
1.6425102 -0.79375041 2.273
1.6562378 -0.7951473 2.2770002
1.6685392 -0.79584563 2.279
1.6808598 -0.79654408 2.2810001
1.6917161 -0.79654408 2.2810001
1.7018259 -0.79619491 2.2800002
1.707419 -0.79375041 2.273
1.7167255 -0.79305202 2.2710001
1.7275339 -0.79305202 2.2710001
1.7383426 -0.79305202 2.2710001
1.7560833 -0.79619491 2.2800002
1.7630596 -0.79444885 2.2750001
1.7824644 -0.79829007 2.286
1.7933444 -0.79829007 2.286
1.8302696 -0.80981398 2.319
0 -0 0
0 -0 0
0 -0 0
0 -0 0
0 -0 0
0 -0 0
0 -0 0
0 -0 0
0 -0 0
0 -0 0
0 -0 0
0 -0 0
0 -0 0
0 -0 0
0 -0 0
0 -0 0
0 -0 0
0 -0 0
0 -0 0
0 -0 0
0 -0 0
0 -0 0
0 -0 0
0 -0 0
0 -0 0
0 -0 0
0 -0 0
0 -0 0
0 -0 0
0 -0 0
0 -0 0
0 -0 0
0 -0 0
0 -0 0
0 -0 0
0 -0 0
0 -0 0
0 -0 0
0 -0 0
0 -0 0
0 -0 0
0 -0 0
-0 -0 0
-0 -0 0
-0 -0 0
-0 -0 0
-0 -0 0
-0 -0 0
-3.3370161 -1.1545926 3.3520002
-3.3200715 -1.1542481 3.3510001
-3.3041229 -1.1542481 3.3510001
-3.2891555 -1.1545926 3.3520002
-3.3093319 -1.1673373 3.3890002
-3.2922308 -1.1669928 3.3880002
-3.3186526 -1.1821486 3.4320002
-3.3119402 -1.185593 3.4420002
-3.3022606 -1.1880041 3.4490001
-3.2925143 -1.1904153 3.4560001
-3.2741699 -1.1897265 3.4540002
-3.2586741 -1.1900709 3.4550002
-3.2469225 -1.1917932 3.4600003
-3.2313886 -1.1921376 3.4610002
-3.2149162 -1.1921376 3.4610002
-3.2002921 -1.1928264 3.4630001
-3.1847296 -1.1931709 3.4640002
-3.1691577 -1.1935154 3.4650002
-3.1872411 -1.2066045 3.5030003
-3.1705689 -1.2066045 3.5030003
-3.1556973 -1.2072933 3.5050001
-3.1425977 -1.2086711 3.5090001
-3.1285694 -1.2097044 3.5120001
-3.1145127 -1.2107378 3.5150001
-3.099546 -1.2114267 3.5170002
-3.0836835 -1.2117711 3.5180001
-3.1009398 -1.2252047 3.5570002
-3.0840104 -1.2252047 3.5570002
-3.0895002 -1.2341603 3.5830002
-3.0810223 -1.2376049 3.5930002
-3.0792711 -1.2438048 3.6110001
-3.0815885 -1.2517272 3.6340001
-3.082844 -1.2593051 3.6560001
-3.0780206 -1.2644719 3.6710002
-3.0605488 -1.2644719 3.6710002
-3.0439057 -1.2648163 3.6720002
-3.0239568 -1.263783 3.6690001
-3.0032167 -1.2624052 3.6650002
-2.9857736 -1.2624052 3.6650002
-2.9667106 -1.2617162 3.6630001
-2.9468613 -1.2606828 3.6600001
-2.9286413 -1.2603384 3.6590002
-2.9167962 -1.2627496 3.6660001
-2.9017208 -1.263783 3.6690001
-2.881114 -1.2624052 3.6650002
-2.8675776 -1.2641274 3.6700001
-2.8508873 -1.2644719 3.6710002
-2.8272405 -1.2617162 3.6630001
-2.8105741 -1.2620608 3.6640003
-2.7961848 -1.2634385 3.6680002
-2.7999389 -1.2730831 3.6960001
-2.8064377 -1.2841054 3.7280002
-2.7909389 -1.2851387 3.7310002
-2.7947366 -1.2951279 3.7600002
-2.8085978 -1.3099391 3.8030002
-2.8059065 -1.3171725 3.8240001
-2.8037446 -1.3247504 3.8460002
-2.8013735 -1.3323283 3.8680003
-2.782964 -1.3323283 3.8680003
-2.7645545 -1.3323283 3.8680003
-2.7461452 -1.3323283 3.8680003
-2.7277358 -1.3323283 3.8680003
-2.7093263 -1.3323283 3.8680003
-2.690917 -1.3323283 3.8680003
-2.6883988 -1.3402506 3.8910003
-2.6698799 -1.3402506 3.8910003
-2.666352 -1.3478284 3.9130001
-2.6632915 -1.3557508 3.9360001
-2.6600118 -1.3636731 3.9590001
-2.6411693 -1.3636731 3.9590001
-2.6382239 -1.3719399 3.9830003
-2.6501746 -1.388129 4.0300002
-2.6309943 -1.388129 4.0300002
-2.6280162 -1.3967402 4.0550003
-2.6087167 -1.3967402 4.0550003
-2.5894175 -1.3967402 4.0550003
-2.570118 -1.3967402 4.0550003
-2.5508184 -1.3967402 4.0550003
-2.5315194 -1.3967402 4.0550003
-2.5122199 -1.3967402 4.0550003
-2.4929204 -1.3967402 4.0550003
-2.4882612 -1.4050069 4.079
-2.483979 -1.4136182 4.1040001
-2.4644463 -1.4136182 4.1040001
-2.4598074 -1.4222294 4.1290002
-2.4555213 -1.4311851 4.1550002
-2.4357457 -1.4311851 4.1550002
-2.4159706 -1.4311851 4.1550002
-2.3961952 -1.4311851 4.1550002
-2.3764198 -1.4311851 4.1550002
-2.3566444 -1.4311851 4.1550002
-2.3368692 -1.4311851 4.1550002
-2.3170936 -1.4311851 4.1550002
-2.2973182 -1.4311851 4.1550002
-2.2912467 -1.4397963 4.1800003
-2.2860236 -1.4490964 4.2070003
-2.280005 -1.4580522 4.2330003
-2.2742732 -1.4673523 4.2600002
-2.2682838 -1.4766524 4.2870002
-2.2620375 -1.4859525 4.3140001
-2.2415054 -1.4859525 4.3140001
-2.2209733 -1.4859525 4.3140001
-2.2004411 -1.4859525 4.3140001
-2.1799092 -1.4859525 4.3140001
-2.1733923 -1.495597 4.342
-2.1527271 -1.495597 4.342
-2.1320617 -1.495597 4.342
-2.1113963 -1.495597 4.342
-2.1046951 -1.505586 4.3710003
-2.0838916 -1.505586 4.3710003
-2.076304 -1.5152307 4.3990002
-2.0553675 -1.5152307 4.3990002
-2.0344307 -1.5152307 4.3990002
-2.0267677 -1.5252196 4.428
-2.005693 -1.5252196 4.428
-1.9846183 -1.5252196 4.428
-1.9635437 -1.5252196 4.428
-1.9551909 -1.5352087 4.4570003
-1.9339781 -1.5352087 4.4570003
-1.9127654 -1.5352087 4.4570003
-1.8915528 -1.5352087 4.4570003
-1.8829291 -1.545542 4.487
-1.8615737 -1.545542 4.487
-1.852522 -1.5558755 4.5170002
-1.8310237 -1.5558755 4.5170002
-1.8219442 -1.5665536 4.5480003
-1.8125695 -1.5772314 4.579
-1.8028997 -1.5879093 4.6100001
-1.7933213 -1.5989317 4.6420002
-1.7834383 -1.6099541 4.6740003
-1.7736273 -1.6213208 4.7070003
-1.7635024 -1.6326877 4.7400002
-1.7530631 -1.6440545 4.7730002
-1.743035 -1.6561102 4.8080001
-1.7448379 -1.6798773 4.8770003
-1.7343343 -1.6922773 4.9130001
-1.7363737 -1.717422 4.9860001
-1.7384051 -1.7432559 5.0610003
-1.7271894 -1.7563449 5.0990005
-1.7289709 -1.7832118 5.177
-1.7043315 -1.7832118 5.177
-1.6926702 -1.7969899 5.2170005
-1.6678404 -1.7969899 5.2170005
-1.6304131 -1.7832118 5.177
-1.6057736 -1.7832118 5.177
-1.5692229 -1.7697783 5.138
-1.5330436 -1.7563449 5.0990005
-1.5087754 -1.7563449 5.0990005
-1.4734439 -1.7432559 5.0610003
-1.4384742 -1.7301667 5.0230002
-0 -0 0
-0 -0 0
-0 -0 0
-0 -0 0
-0 -0 0
-0 -0 0
-0 -0 0
-0.65228987 -0.90486717 2.6270001
-0.63929987 -0.90417838 2.6250002
-0.62561244 -0.90245605 2.6200001
-0.61267471 -0.90176713 2.618
-0.6002146 -0.90176713 2.618
-0.58797896 -0.90211165 2.6190002
-0.57617337 -0.90314502 2.6220002
-0.5645541 -0.90452278 2.6260002
-0.55331725 -0.90658951 2.6320002
-0.54181778 -0.90831167 2.6370001
-0.53007001 -0.90968949 2.641
-0.51848018 -0.91141176 2.6460001
-0.50665152 -0.91278952 2.6500001
-0.4947848 -0.91416728 2.654
-0.48288003 -0.91554517 2.6580002
-0.47111404 -0.91726738 2.6630001
-0.45912835 -0.91864514 2.6670001
-0.44727197 -0.92036742 2.6720002
-0.43504271 -0.92140079 2.6750002
-0.42278492 -0.92243415 2.6780002
-0.41003922 -0.92243415 2.6780002
-0.39699677 -0.92174518 2.6760001
-0.38397339 -0.92105627 2.674
-0.36958075 -0.91692293 2.6620002
-0.35650894 -0.91588956 2.6590002
-0.34450021 -0.91761178 2.664
-0.33157206 -0.91692293 2.6620002
-0.31866291 -0.91623402 2.6600001
-0.3051976 -0.91382289 2.6530001
-0.28981388 -0.90521163 2.628
-0.27656752 -0.9028005 2.6210001
-0.26328704 -0.90004492 2.6130002
-0.25056267 -0.89901161 2.6100001
-0 -0 0
-0 -0 0
-0 -0 0
-0 -0 0
-0 -0 0
-0 -0 0
-0 -0 0
-0 -0 0
-0 -0 0
-0.065446146 -0.4656949 1.3520001
-0.058880478 -0.46466154 1.3490001
-0.052382257 -0.46397266 1.3470001
-0.045868941 -0.46293932 1.3440001
-0.039384183 -0.46190596 1.3410001
-0.032927983 -0.46087259 1.3380001
-0.026500339 -0.45983925 1.335
-0.020116342 -0.45915034 1.3330001
-0.013751384 -0.45846146 1.3310001
-0.0074054627 -0.45777258 1.3290001
-0.0010793918 -0.45742813 1.3280001
0.0052371598 -0.45708364 1.327
0.011552899 -0.45708364 1.327
0.017868638 -0.45708364 1.327
0.024184376 -0.45708364 1.327
0.030500118 -0.45708364 1.327
0.036815856 -0.45708364 1.327
0.043164097 -0.45742813 1.3280001
0.049484596 -0.45742813 1.3280001
0.055805098 -0.45742813 1.3280001
0.062125597 -0.45742813 1.3280001
0.068446092 -0.45742813 1.3280001
0.074822895 -0.45777258 1.3290001
0.081148155 -0.45777258 1.3290001
0.087539226 -0.45811701 1.33
0.093869239 -0.45811701 1.33
0.10019927 -0.45811701 1.33
0.10652928 -0.45811701 1.33
0.11285929 -0.45811701 1.33
0.11918931 -0.45811701 1.33
0.12551934 -0.45811701 1.33
0.13184935 -0.45811701 1.33
0.13817936 -0.45811701 1.33
0.14450938 -0.45811701 1.33
0.15095282 -0.45846146 1.3310001
0.1572876 -0.45846146 1.3310001
0.16362236 -0.45846146 1.3310001
0.16995715 -0.45846146 1.3310001
0.17629193 -0.45846146 1.3310001
0.18276389 -0.45880589 1.332
0.18924542 -0.45915034 1.3330001
0.19558972 -0.45915034 1.3330001
0.20193399 -0.45915034 1.3330001
0.20843455 -0.45949483 1.3340001
0.21478362 -0.45949483 1.3340001
0.22113267 -0.45949483 1.3340001
0.22748172 -0.45949483 1.3340001
0.23383078 -0.45949483 1.3340001
0.24017984 -0.45949483 1.3340001
0.24652888 -0.45949483 1.3340001
0.25287795 -0.45949483 1.3340001
0.25922701 -0.45949483 1.3340001
0.26577511 -0.45983925 1.335
0.27212894 -0.45983925 1.335
0.27848276 -0.45983925 1.335
0.28483656 -0.45983925 1.335
0.29140851 -0.46018371 1.3360001
0.2977671 -0.46018371 1.3360001
0.30412564 -0.46018371 1.3360001
0.3107166 -0.46052814 1.337
0.31707996 -0.46052814 1.337
0.3236852 -0.46087259 1.3380001
0.33029997 -0.46121708 1.3390001
0.33692425 -0.4615615 1.34
0.34355807 -0.46190596 1.3410001
0.35020137 -0.46225038 1.342
0.35685423 -0.46259484 1.3430001
0.36351663 -0.46293932 1.3440001
0.37018847 -0.46328375 1.345
0.37686992 -0.4636282 1.3460001
0.38356084 -0.46397266 1.3470001
0.39026123 -0.46431708 1.348
0.39638269 -0.46397266 1.3470001
0.40279362 -0.46397266 1.3470001
0 -0 0
0 -0 0
0 -0 0
0 -0 0
0 -0 0
0 -0 0
0 -0 0
1.0709839 -1.0943141 3.177
1.0864465 -1.0946586 3.1780002
1.1012251 -1.0943141 3.177
1.1170487 -1.095003 3.1790001
1.1243436 -1.0874251 3.1570001
1.1411736 -1.0891473 3.1620002
1.1448874 -1.0784694 3.131
1.1571962 -1.0760583 3.1240001
1.1548061 -1.0602137 3.0780001
1.1534983 -1.0457468 3.0360003
1.1406342 -1.0212909 2.9650002
1.1286521 -0.99821287 2.8980002
1.1144553 -0.97375697 2.8270001
1.1023756 -0.95171231 2.7630002
1.0925127 -0.93207866 2.7060001
1.0870094 -0.91657841 2.661
1.0831439 -0.9028005 2.6210001
1.083078 -0.89246702 2.5910001
1.0924501 -0.89005589 2.5840001
1.1013283 -0.88730037 2.5760002
1.1109948 -0.88523364 2.5700002
1.1210411 -0.88351136 2.5650001
1.13104 -0.88178915 2.5600002
1.1405447 -0.87972248 2.5540001
1.1418682 -0.87145573 2.5300002
1.146612 -0.8659445 2.5140002
1.147056 -0.85733324 2.4890001
1.1537805 -0.85354435 2.4780002
1.162752 -0.85147762 2.4720001
1.1683407 -0.84699982 2.4590001
1.1776446 -0.84527761 2.4540002
1.186901 -0.84355533 2.4490001
1.1970886 -0.84252197 2.4460001
1.2067534 -0.8411442 2.4420002
1.2163802 -0.83976638 2.4380002
1.2264726 -0.83873308 2.4350002
1.2360281 -0.83735526 2.4310002
1.2455453 -0.83597744 2.427
1.2529527 -0.83322185 2.4190001
1.2534885 -0.82598835 2.398
1.2606816 -0.82323283 2.3900001
1.2720567 -0.82323283 2.3900001
1.2791358 -0.82047725 2.3820002
1.271511 -0.80842155 2.3470001
1.2815883 -0.80773258 2.345
1.2921979 -0.80738819 2.3440001
1.305022 -0.80842155 2.3470001
1.3156316 -0.8080771 2.3460002
1.3267972 -0.8080771 2.3460002
1.338533 -0.80842155 2.3470001
1.3502785 -0.80876595 2.348
1.3626133 -0.80945486 2.3500001
1.3743824 -0.80979931 2.3510001
1.3867506 -0.81048822 2.3530002
1.40092 -0.81221044 2.358
1.4127415 -0.81255496 2.3590002
1.423969 -0.81255496 2.3590002
1.4388468 -0.81462157 2.365
1.4341609 -0.80566597 2.3390002
1.4415858 -0.80359924 2.3330002
1.447708 -0.80084366 2.325
1.4556365 -0.79912144 2.3200002
1.4647818 -0.79808807 2.3170002
1.4738985 -0.79705471 2.3140001
1.4836283 -0.7963658 2.312
1.5004504 -0.79946584 2.3210001
1.503031 -0.79498804 2.3080001
1.5133597 -0.79464358 2.3070002
1.5236789 -0.79429907 2.306
1.5339886 -0.79395467 2.3050001
1.5429481 -0.7929213 2.302
1.5518793 -0.79188794 2.299
1.5607818 -0.79085457 2.296
1.572394 -0.79119909 2.2970002
1.5543758 -0.77673221 2.2550001
1.5651083 -0.77673221 2.2550001
1.5751419 -0.77638781 2.2540002
1.590091 -0.77845442 2.26
1.6015557 -0.77879894 2.2610002
1.6144561 -0.7798323 2.2640002
1.6273849 -0.78086567 2.2670002
1.6417875 -0.78258783 2.2720001
1.654783 -0.78362119 2.2750001
1.667075 -0.7843101 2.2770002
1.6779122 -0.7843101 2.2770002
1.6887496 -0.7843101 2.2770002
1.69884 -0.78396565 2.276
1.7044144 -0.78155452 2.2690001
1.7137017 -0.78086567 2.2670002
1.7237304 -0.78052115 2.266
1.7352809 -0.78086567 2.2670002
1.7530023 -0.78396565 2.276
1.759185 -0.78189898 2.2700002
1.7801251 -0.78637677 2.283
1.7996204 -0.79016572 2.2940001
1.8081707 -0.78913242 2.2910001
0 -0 0
0 -0 0
0 -0 0
0 -0 0
0 -0 0
0 -0 0
0 -0 0
0 -0 0
0 -0 0
0 -0 0
0 -0 0
0 -0 0
0 -0 0
0 -0 0
0 -0 0
0 -0 0
0 -0 0
0 -0 0
0 -0 0
0 -0 0
0 -0 0
0 -0 0
0 -0 0
0 -0 0
0 -0 0
0 -0 0
0 -0 0
0 -0 0
0 -0 0
0 -0 0
0 -0 0
0 -0 0
0 -0 0
0 -0 0
0 -0 0
0 -0 0
0 -0 0
0 -0 0
0 -0 0
0 -0 0
0 -0 0
0 -0 0
-0 -0 0
-0 -0 0
-0 -0 0
-0 -0 0
-0 -0 0
-0 -0 0
-3.3380115 -1.1389787 3.3530002
-3.3210623 -1.1386391 3.3520002
-3.305109 -1.1386391 3.3520002
-3.3323305 -1.1535853 3.3960001
-3.3103085 -1.1515472 3.3900001
-3.3311 -1.1644554 3.4280002
-3.3080158 -1.1620777 3.4210002
-3.3388824 -1.1787224 3.4700003
-3.3214097 -1.1783826 3.4690001
-3.2972779 -1.1756651 3.4610002
-3.2798576 -1.1753255 3.4600003
-3.2615037 -1.1746461 3.4580002
-3.2431686 -1.1739668 3.4560001
-3.2257864 -1.173627 3.4550002
-3.209343 -1.173627 3.4550002
-3.1947474 -1.1743065 3.4570003
-3.1792133 -1.1746461 3.4580002
-3.1682432 -1.1766843 3.4640002
-3.1490269 -1.1756651 3.4610002
-3.1705689 -1.1899322 3.5030003
-3.1547971 -1.1902719 3.5040002
-3.1417022 -1.1916306 3.5080001
-3.1276786 -1.1926496 3.5110002
-3.1127408 -1.1933291 3.5130002
-3.0977833 -1.1940084 3.5150001
-3.0819306 -1.1943481 3.5160003
-3.0991962 -1.2075959 3.5550001
-3.0814095 -1.2072563 3.5540001
-3.0903623 -1.2174469 3.5840001
-3.0784497 -1.2194852 3.5900002
-3.083535 -1.228317 3.6160002
-3.0790448 -1.2334124 3.6310003
-3.0845306 -1.242584 3.6580002
-3.0763435 -1.2463206 3.6690001
-3.0605488 -1.247 3.6710002
-3.0654585 -1.2561716 3.6980002
-3.0437374 -1.2544731 3.6930001
-3.0237024 -1.253454 3.6900001
-3.0102136 -1.2551525 3.6950002
-2.991818 -1.2548128 3.6940002
-2.9734313 -1.2544731 3.6930001
-2.9542539 -1.2537937 3.6910002
-2.9104311 -1.242584 3.6580002
-2.8938119 -1.2429237 3.6590002
-2.8771834 -1.2432634 3.6600001
-2.8589828 -1.2429237 3.6590002
-2.8431213 -1.2436031 3.6610003
-2.8264687 -1.2439427 3.6620002
-2.8113413 -1.2449619 3.6650002
-2.8045702 -1.2497175 3.6790001
-2.7999389 -1.2554922 3.6960001
-2.8064377 -1.2663623 3.7280002
-2.7894425 -1.2667019 3.7290001
-2.7947366 -1.2772323 3.7600002
-2.8085978 -1.291839 3.8030002
-2.8059065 -1.2989725 3.8240001
-2.8037446 -1.3064456 3.8460002
-2.8013735 -1.3139188 3.8680003
-2.782964 -1.3139188 3.8680003
-2.7645545 -1.3139188 3.8680003
-2.7624745 -1.3217317 3.8910003
-2.7439554 -1.3217317 3.8910003
-2.7254364 -1.3217317 3.8910003
-2.7069178 -1.3217317 3.8910003
-2.6883988 -1.3217317 3.8910003
-2.6849756 -1.3292048 3.9130001
-2.666352 -1.3292048 3.9130001
-2.6632915 -1.3370177 3.9360001
-2.6445582 -1.3370177 3.9360001
-2.6411693 -1.3448305 3.9590001
-2.6382239 -1.3529831 3.9830003
-2.6343918 -1.3607959 4.006
-2.6309943 -1.3689485 4.0300002
-2.6280162 -1.3774408 4.0550003
-2.6087167 -1.3774408 4.0550003
-2.5894175 -1.3774408 4.0550003
-2.570118 -1.3774408 4.0550003
-2.5508184 -1.3774408 4.0550003
-2.5315194 -1.3774408 4.0550003
-2.5122199 -1.3774408 4.0550003
-2.5076747 -1.3855932 4.079
-2.4882612 -1.3855932 4.079
-2.483979 -1.3940854 4.1040001
-2.4794588 -1.4025778 4.1290002
-2.4598074 -1.4025778 4.1290002
-2.4555213 -1.4114096 4.1550002
-2.4504013 -1.419902 4.1800003
-2.4305072 -1.419902 4.1800003
-2.4106128 -1.419902 4.1800003
-2.3907185 -1.419902 4.1800003
-2.3566444 -1.4114096 4.1550002
-2.3368692 -1.4114096 4.1550002
-2.3170936 -1.4114096 4.1550002
-2.2973182 -1.4114096 4.1550002
-2.2775431 -1.4114096 4.1550002
-2.2860236 -1.4290736 4.2070003
-2.2660007 -1.4290736 4.2070003
-2.2742732 -1.447077 4.2600002
-2.2682838 -1.4562486 4.2870002
-2.2620375 -1.4654202 4.3140001
-2.2560539 -1.4749315 4.342
-2.2353885 -1.4749315 4.342
-2.2147231 -1.4749315 4.342
-2.1940579 -1.4749315 4.342
-2.1733923 -1.4749315 4.342
-2.1527271 -1.4749315 4.342
-2.1320617 -1.4749315 4.342
-2.1113963 -1.4749315 4.342
-2.0907309 -1.4749315 4.342
-2.0838916 -1.4847826 4.3710003
-2.0630882 -1.4847826 4.3710003
-2.0553675 -1.4942939 4.3990002
-2.0344307 -1.4942939 4.3990002
-2.013494 -1.4942939 4.3990002
-1.9925574 -1.4942939 4.3990002
-1.9716207 -1.4942939 4.3990002
-1.9635437 -1.5041448 4.428
-1.942469 -1.5041448 4.428
-1.9213943 -1.5041448 4.428
-1.9003197 -1.5041448 4.428
-1.8915528 -1.5139959 4.4570003
-1.87034 -1.5139959 4.4570003
-1.8615737 -1.5241865 4.487
-1.852522 -1.5343772 4.5170002
-1.8310237 -1.5343772 4.5170002
-1.8219442 -1.5449077 4.5480003
-1.8002985 -1.5449077 4.5480003
-1.8028997 -1.5659683 4.6100001
-1.7933213 -1.5768384 4.6420002
-1.7712282 -1.5768384 4.6420002
-1.7736273 -1.5989182 4.7070003
-1.7512248 -1.5989182 4.7070003
-1.7530631 -1.6213378 4.7730002
-1.743035 -1.6332269 4.8080001
-1.7323158 -1.6447762 4.842
-1.7343343 -1.6688942 4.9130001
-1.7234885 -1.6811231 4.9490004
-1.7253525 -1.7062601 5.0230002
-1.7143177 -1.7191683 5.0610003
-1.7159461 -1.7453243 5.138
-1.6914922 -1.7453243 5.138
-1.6796919 -1.7585722 5.177
-1.6550525 -1.7585722 5.177
-1.6181307 -1.7453243 5.138
-1.5936767 -1.7453243 5.138
-1.5573119 -1.7320765 5.0990005
-1.5330436 -1.7320765 5.0990005
-1.4975312 -1.7191683 5.0610003
-1.4623806 -1.7062601 5.0230002
-1.4278781 -1.6936915 4.9860001
-0 -0 0
-0 -0 0
-0 -0 0
-0 -0 0
-0 -0 0
-0 -0 0
-0 -0 0
-0.65651101 -0.89813888 2.6440001
-0.63954335 -0.89202452 2.6260002
-0.62513483 -0.88930696 2.618
-0.61244071 -0.88896728 2.6170001
-0.6002146 -0.88930696 2.618
-0.58797896 -0.88964671 2.6190002
-0.57617337 -0.89066577 2.6220002
-0.5645541 -0.89202452 2.6260002
-0.55310696 -0.89372289 2.631
-0.54161233 -0.89542139 2.6360002
-0.53027076 -0.89745957 2.6420002
-0.51848018 -0.89881831 2.6460001
-0.50665152 -0.900177 2.6500001
-0.49459839 -0.90119612 2.6530001
-0.4830617 -0.90323424 2.6590002
-0.47111404 -0.90459299 2.6630001
-0.45930055 -0.90629148 2.6680002
-0.44743934 -0.90798986 2.6730001
-0.4355306 -0.90968835 2.6780002
-0.42341644 -0.9110471 2.6820002
-0.41049856 -0.91070747 2.6810002
-0.39877704 -0.91308528 2.6880002
-0.38612732 -0.91342491 2.6890001
-0.37319046 -0.91308528 2.6880002
-0.35999492 -0.91206616 2.6850002
-0.34682792 -0.9110471 2.6820002
-0.33368954 -0.91002804 2.6790001
-0.3190223 -0.90459299 2.6630001
-0.3051976 -0.90119612 2.6530001
-0.29367366 -0.90459299 2.6630001
-0.2806828 -0.90357393 2.6600001
-0.26429465 -0.89100546 2.6230001
-0 -0 0
-0 -0 0
-0 -0 0
-0 -0 0
-0 -0 0
-0 -0 0
-0 -0 0
-0 -0 0
-0 -0 0
-0.072253034 -0.46163797 1.3590001
-0.065591365 -0.4602792 1.355
-0.058967773 -0.45892045 1.3510001
-0.05246003 -0.45824108 1.3490001
-0.045903068 -0.4568823 1.345
-0.039413553 -0.45586321 1.342
-0.032927983 -0.45450449 1.3380001
-0.026500339 -0.4534854 1.335
-0.020116342 -0.45280603 1.3330001
-0.013751384 -0.45212665 1.3310001
-0.0074054627 -0.45144731 1.3290001
-0.0010793918 -0.45110759 1.3280001
0.0052371598 -0.45076787 1.327
0.011552899 -0.45076787 1.327
0.017868638 -0.45076787 1.327
0.024184376 -0.45076787 1.327
0.030500118 -0.45076787 1.327
0.036815856 -0.45076787 1.327
0.043164097 -0.45110759 1.3280001
0.049484596 -0.45110759 1.3280001
0.055805098 -0.45110759 1.3280001
0.062125597 -0.45110759 1.3280001
0.068446092 -0.45110759 1.3280001
0.074822895 -0.45144731 1.3290001
0.081148155 -0.45144731 1.3290001
0.087539226 -0.45178697 1.33
0.093869239 -0.45178697 1.33
0.10019927 -0.45178697 1.33
0.10652928 -0.45178697 1.33
0.11285929 -0.45178697 1.33
0.11918931 -0.45178697 1.33
0.12551934 -0.45178697 1.33
0.13184935 -0.45178697 1.33
0.13817936 -0.45178697 1.33
0.14450938 -0.45178697 1.33
0.15095282 -0.45212665 1.3310001
0.1572876 -0.45212665 1.3310001
0.16362236 -0.45212665 1.3310001
0.16995715 -0.45212665 1.3310001
0.17629193 -0.45212665 1.3310001
0.18276389 -0.45246634 1.332
0.18924542 -0.45280603 1.3330001
0.19558972 -0.45280603 1.3330001
0.20193399 -0.45280603 1.3330001
0.20843455 -0.45314574 1.3340001
0.21478362 -0.45314574 1.3340001
0.22113267 -0.45314574 1.3340001
0.22748172 -0.45314574 1.3340001
0.23383078 -0.45314574 1.3340001
0.24017984 -0.45314574 1.3340001
0.24652888 -0.45314574 1.3340001
0.25287795 -0.45314574 1.3340001
0.25922701 -0.45314574 1.3340001
0.26577511 -0.4534854 1.335
0.27212894 -0.4534854 1.335
0.27848276 -0.4534854 1.335
0.28483656 -0.4534854 1.335
0.29140851 -0.45382512 1.3360001
0.2977671 -0.45382512 1.3360001
0.30435327 -0.45416477 1.337
0.31094903 -0.45450449 1.3380001
0.31731713 -0.45450449 1.3380001
0.3236852 -0.45450449 1.3380001
0.33029997 -0.45484418 1.3390001
0.33692425 -0.45518386 1.34
0.34355807 -0.45552355 1.3410001
0.35020137 -0.45586321 1.342
0.35658848 -0.45586321 1.342
0.36351663 -0.45654264 1.3440001
0.37018847 -0.4568823 1.345
0.37686992 -0.45722201 1.3460001
0.38327608 -0.45722201 1.3460001
0.39026123 -0.45790136 1.348
0.39667696 -0.45790136 1.348
0.40309262 -0.45790136 1.348
0.40981209 -0.45824108 1.3490001
0 -0 0
0 -0 0
0 -0 0
0 -0 0
0 -0 0
0 -0 0
0 -0 0
1.0867883 -1.0798727 3.1790001
1.102265 -1.0802125 3.1800001
1.1170487 -1.0798727 3.1790001
1.1339595 -1.0815712 3.1840003
1.1415346 -1.0744377 3.1630001
1.1456188 -1.064247 3.1330001
1.16053 -1.064247 3.1330001
1.156307 -1.0469229 3.0820003
1.1534983 -1.0312972 3.0360003
1.1406342 -1.0071793 2.9650002
1.1282625 -0.98408031 2.8970001
1.1140611 -0.95996243 2.8260002
1.1019766 -0.93822223 2.7620001
1.0921091 -0.91885996 2.7050002
1.0861925 -0.90323424 2.6590002
1.0827308 -0.88998634 2.6200001
1.0960366 -0.89066577 2.6220002
1.0899135 -0.87571937 2.5780001
1.1013283 -0.87504005 2.5760002
1.1109948 -0.87300187 2.5700002
1.1153594 -0.86688745 2.552
1.1257381 -0.8655287 2.5480001
1.1356324 -0.86383033 2.5430002
1.1441249 -0.86111271 2.5350001
1.1475242 -0.8546586 2.516
1.1594989 -0.8546586 2.516
1.1537805 -0.84175044 2.4780002
1.162752 -0.83971232 2.4720001
1.1702411 -0.83665508 2.4630001
1.1790842 -0.83461696 2.457
1.1878703 -0.8325789 2.4510002
1.197578 -0.83122003 2.447
1.2072475 -0.82986128 2.4430001
1.2168791 -0.8285026 2.4390001
1.2264726 -0.82714385 2.4350002
1.2360281 -0.8257851 2.4310002
1.2455453 -0.82442629 2.427
1.2545066 -0.82272786 2.4220002
1.2540113 -0.814915 2.3990002
1.2622641 -0.81287688 2.3930001
1.2736535 -0.81287688 2.3930001
1.2775248 -0.8081212 2.3790002
1.2780122 -0.80132747 2.3590002
1.2881466 -0.80064803 2.3570001
1.2916467 -0.79589242 2.3430002
1.305022 -0.79725116 2.3470001
