# .PCD v0.7 - Point Cloud Data file format
VERSION 0.7
FIELDS x y z
SIZE 4 4 4
TYPE F F F
COUNT 1 1 1
WIDTH 1590
HEIGHT 1
VIEWPOINT 0 0 0 1 0 0 0
POINTS 1590
DATA ascii
0.44132587 -0.32306895 3.3320003
0.45704696 -0.32297197 3.3310001
0.47190678 -0.32229328 3.3240001
0.48347193 -0.31948143 3.2950001
0.49885121 -0.31928754 3.2930002
0.50952405 -0.31618482 3.2610002
0.52520549 -0.31628177 3.2620001
0.54006761 -0.31589395 3.2580001
0.55557376 -0.31589395 3.2580001
0.57125521 -0.3159909 3.2590001
0.58712626 -0.31618482 3.2610002
0.60283148 -0.31628177 3.2620001
0.6183567 -0.31628177 3.2620001
0.63368762 -0.31618482 3.2610002
0.6442309 -0.31376085 3.2360001
0.65922475 -0.31356692 3.2340002
0.66981888 -0.31133685 3.2110002
0.68339437 -0.31056118 3.2030001
0.6940583 -0.30852503 3.1820002
0.70875698 -0.3083311 3.1800001
0.71478629 -0.30445272 3.1400001
0.72880131 -0.3040649 3.1360002
0.74206674 -0.30338618 3.1290002
0.75744271 -0.30358008 3.131
0.77234441 -0.30358008 3.131
0.78774899 -0.30377403 3.1330001
0.80445367 -0.30445272 3.1400001
0.82122487 -0.30513144 3.1470001
0.83673418 -0.30532536 3.1490002
0.85604918 -0.30687672 3.1650002
0.8711127 -0.30687672 3.1650002
0.88617629 -0.30687672 3.1650002
0.90152454 -0.30697367 3.1660001
0.91746134 -0.30726457 3.1690001
0.9328382 -0.30736151 3.1700001
0.94792551 -0.30736151 3.1700001
0.96331668 -0.30745849 3.1710002
0.97779167 -0.30726457 3.1690001
0.9919343 -0.30697367 3.1660001
1.0063664 -0.30677974 3.164
1.0188427 -0.30600408 3.1560001
1.0335357 -0.30590713 3.1550002
1.0492163 -0.30610102 3.1570001
1.064579 -0.306198 3.1580002
1.0922582 -0.30978552 3.1950002
1.1071179 -0.30968854 3.1940002
1.1377803 -0.31395477 3.2380002
1.1510544 -0.313373 3.2320001
1.1671586 -0.31356692 3.2340002
1.1825507 -0.31356692 3.2340002
1.1949791 -0.31279123 3.2260001
1.2099578 -0.31269428 3.2250001
1.2264467 -0.31298515 3.2280002
1.2279609 -0.30949461 3.1920002
1.2423739 -0.30930069 3.1900001
1.2607104 -0.31007639 3.1980002
1.2751329 -0.30988246 3.1960001
1.2850955 -0.30862197 3.1830001
1.2994277 -0.30842808 3.1810002
1.3137408 -0.30823416 3.1790001
1.3284531 -0.30813721 3.1780002
1.3431556 -0.30804023 3.177
1.3381822 -0.30348313 3.1300001
1.3223864 -0.29659903 3.0590003
1.2906177 -0.28632131 2.9530001
1.2671181 -0.27807975 2.868
1.2450424 -0.27032301 2.7880001
1.2249132 -0.26314801 2.7140002
1.2127452 -0.25781524 2.6590002
1.2300091 -0.25878483 2.6690001
1.2422463 -0.25868788 2.6680002
1.2549444 -0.25868788 2.6680002
1.269068 -0.25897875 2.6710002
1.2923378 -0.26111186 2.6930001
1.324056 -0.26489326 2.7320001
1.3556564 -0.26857772 2.7700002
1.3945364 -0.27361962 2.822
1.4349095 -0.27885544 2.8760002
1.476804 -0.28428516 2.9320002
1.5238075 -0.29058754 2.9970002
1.5714295 -0.29688987 3.062
1.6020598 -0.29989564 3.0930002
1.6392578 -0.3040649 3.1360002
1.6541831 -0.3040649 3.1360002
1.6685766 -0.30396795 3.1350002
1.6829603 -0.30387098 3.1340001
1.6989597 -0.3040649 3.1360002
1.6991293 -0.301447 3.1090002
1.7067597 -0.30018651 3.0960002
1.7187145 -0.29970172 3.0910001
1.7289395 -0.29892606 3.0830002
1.7424817 -0.29873213 3.0810001
1.7565751 -0.29863515 3.0800002
1.7706591 -0.29853821 3.0790002
1.7853134 -0.29853821 3.0790002
1.797629 -0.29815036 3.075
1.8128537 -0.29824734 3.0760002
1.8292761 -0.29853821 3.0790002
1.8457268 -0.29882911 3.0820003
1.8694497 -0.30028346 3.0970001
1.9042667 -0.30348313 3.1300001
1.9332659 -0.30571321 3.1530001
1.985347 -0.31153077 3.2130001
1.9975258 -0.31104597 3.2080002
2.0429103 -0.31570002 3.256
2.0565107 -0.31540915 3.2530003
2.0955601 -0.31899667 3.2900002
2.1144271 -0.31948143 3.2950001
2.1423922 -0.32132366 3.3140001
2.1607699 -0.32171151 3.3180001
2.1772175 -0.32180849 3.3190002
2.1949964 -0.32209936 3.3220003
2.2114725 -0.3221963 3.3230002
2.227288 -0.3221963 3.3230002
2.2410786 -0.32190543 3.3200002
2.2562001 -0.32180849 3.3190002
2.265151 -0.3208389 3.3090003
2.2781427 -0.32045102 3.3050001
2.2931786 -0.32035407 3.3040001
2.3082047 -0.32025713 3.3030002
2.3232214 -0.32016015 3.302
2.338937 -0.32016015 3.302
2.3546526 -0.32016015 3.302
2.3653431 -0.31948143 3.2950001
2.3817482 -0.31957841 3.2960002
2.3988898 -0.31977233 3.2980001
2.4175148 -0.32016015 3.302
2.4354413 -0.32045102 3.3050001
2.4578462 -0.32132366 3.3140001
2.474365 -0.32142064 3.3150001
2.4946496 -0.32200238 3.3210001
2.5346456 -0.3251051 3.3530002
2.5521252 -0.32529902 3.3550003
2.5680931 -0.32529902 3.3550003
2.5848312 -0.32539597 3.3560002
2.6008036 -0.32539597 3.3560002
2.6175559 -0.32549292 3.3570001
2.6311798 -0.32520205 3.3540001
2.6447752 -0.32491118 3.3510001
2.6670761 -0.32568687 3.3590002
2.675874 -0.32481423 3.3500001
2.6902108 -0.32462028 3.348
2.7069538 -0.32471725 3.3490002
2.7285845 -0.32539597 3.3560002
2.7461927 -0.3255899 3.3580003
2.7638197 -0.32578382 3.3600001
2.7798114 -0.32578382 3.3600001
2.7933066 -0.32549292 3.3570001
2.8109579 -0.32568687 3.3590002
2.8269448 -0.32568687 3.3590002
2.8429315 -0.32568687 3.3590002
2.8623228 -0.32607469 3.3630002
2.876617 -0.32588077 3.3610001
2.8900316 -0.3255899 3.3580003
2.9042828 -0.32539597 3.3560002
2.9219959 -0.3255899 3.3580003
2.9362278 -0.32539597 3.3560002
2.945163 -0.32462028 3.348
2.9655199 -0.3251051 3.3530002
2.9788105 -0.32481423 3.3500001
2.9956484 -0.32491118 3.3510001
3.0098 -0.32471725 3.3490002
3.0248356 -0.32462028 3.348
3.0389538 -0.32442638 3.3460002
3.0621827 -0.32520205 3.3540001
3.0579553 -0.32306895 3.3320003
3.0784261 -0.32355374 3.3370001
3.0915265 -0.32326287 3.3340001
3.1018019 -0.3226811 3.3280001
3.1176412 -0.3226811 3.3280001
3.1315978 -0.32248721 3.3260002
3.1474273 -0.32248721 3.3260002
3.1623061 -0.32239023 3.325
3.1781311 -0.32239023 3.325
3.192035 -0.3221963 3.3230002
3.2059197 -0.32200238 3.3210001
3.2207558 -0.32190543 3.3200002
3.2180345 -0.3200632 3.3010001
3.2268879 -0.31938449 3.2940001
0 -0 0
0 -0 0
-0 -0 0
-0 -0 0
-0 -0 0
-0 -0 0
-0 -0 0
-0 -0 0
-0 -0 0
-0 -0 0
-0 -0 0
-0 -0 0
-0 -0 0
-0 -0 0
-1.0530341 -0.10040586 1.0890001
-1.0488131 -0.10049806 1.09
-1.0455403 -0.10068245 1.092
-1.0422485 -0.10086686 1.0940001
-1.0389376 -0.10105126 1.0960001
-1.0356076 -0.10123566 1.098
-1.0322585 -0.10142005 1.1
-1.0279568 -0.10151226 1.1010001
-0 -0 0
-0 -0 0
-0 -0 0
-0 -0 0
-0 -0 0
-0 -0 0
-1.7556661 -0.17979009 1.95
-1.7508631 -0.18025109 1.955
-1.7415584 -0.18025109 1.955
-1.7304817 -0.1800667 1.9530001
-1.719424 -0.1798823 1.9510001
-1.7092618 -0.17979009 1.95
-1.6982374 -0.17960571 1.9480001
-1.685498 -0.1792369 1.9440001
-1.6702098 -0.17859149 1.937
-0 -0 0
-0 -0 0
-0 -0 0
-0 -0 0
-0 -0 0
-0 -0 0
-0 -0 0
-0.92144555 -0.10307965 1.118
-0.91694397 -0.10317186 1.1190001
-0.91243279 -0.10326406 1.12
-0.90710229 -0.10326406 1.12
-0.90257692 -0.10335626 1.1210001
-0.89804202 -0.10344847 1.1220001
-0.89349759 -0.10354066 1.123
-0.88894367 -0.10363286 1.1240001
-0.88516623 -0.10381726 1.126
-0.88136989 -0.10400166 1.128
-0.87833107 -0.10427826 1.131
-0.87449181 -0.10446265 1.133
-0.87063366 -0.10464706 1.1350001
-0.8675186 -0.10492366 1.138
-0.86361754 -0.10510807 1.1400001
-0.85969746 -0.10529246 1.1420001
-0.85575825 -0.10547686 1.1440001
-0.85105675 -0.10556906 1.1450001
-0 -0 0
-0 -0 0
-0 -0 0
-0 -0 0
-0 -0 0
-0 -0 0
-1.3943715 -0.18108091 1.9640001
-1.3878448 -0.1814497 1.9680001
-1.3791788 -0.1815419 1.9690001
-1.3788514 -0.18274051 1.9820001
-1.3749458 -0.1834781 1.9900001
-1.3771393 -0.18504551 2.0070002
-1.3737198 -0.1858753 2.016
-1.3742746 -0.18725832 2.0310001
-1.3693115 -0.1879037 2.0380001
-1.3622804 -0.18827251 2.0420001
-1.3538864 -0.18845691 2.0440001
-1.346131 -0.18873352 2.0470002
-1.3592383 -0.1919605 2.082
-1.3564582 -0.19297472 2.0930002
-1.3735167 -0.1968471 2.135
-1.3742112 -0.19841452 2.1520002
-1.3760113 -0.2001663 2.171
-1.3757435 -0.20164151 2.187
-1.378445 -0.20357773 2.2080002
-1.3797073 -0.20532951 2.227
-1.3746411 -0.20615931 2.2360001
-1.3792496 -0.20846432 2.2610002
-1.3684886 -0.20846432 2.2610002
-1.359529 -0.20874092 2.2640002
-1.3702004 -0.21206012 2.3000002
-1.3740281 -0.21436511 2.325
-1.3741007 -0.21611692 2.3440001
-1.3896918 -0.22035812 2.3900001
-1.3760101 -0.21998933 2.3860002
-1.3835281 -0.22303192 2.4190001
-1.3714479 -0.22293973 2.4180002
-1.3807495 -0.22635113 2.4550002
-1.374084 -0.22718094 2.4640002
-1.3811555 -0.23031573 2.4980001
-1.3681703 -0.23013133 2.4960001
-1.3785696 -0.23391154 2.5370002
-1.3761901 -0.23557113 2.5550001
-1.3683009 -0.23630874 2.5630002
-1.3698593 -0.23870595 2.5890002
-1.3622562 -0.23953573 2.598
-1.3711945 -0.24331595 2.6390002
-1.3771683 -0.24663515 2.6750002
-1.3833094 -0.25004655 2.7120001
-1.3865719 -0.25299695 2.7440002
-1.3895296 -0.25594732 2.776
-1.3931744 -0.25908214 2.8100002
-1.3935493 -0.26166373 2.8380001
-1.3960891 -0.26470634 2.8710001
-1.4031299 -0.26867095 2.914
-1.4159591 -0.27383414 2.97
-1.4249514 -0.27835196 3.0190001
-1.4297396 -0.28213218 3.0600002
-1.4304373 -0.28517476 3.0930002
-1.4331098 -0.28867835 3.131
-1.4236436 -0.28978476 3.1430001
-1.4113739 -0.29033798 3.1490002
-1.3999339 -0.29107556 3.1570001
-1.3862246 -0.29135215 3.1600001
-1.3716187 -0.29144436 3.1610003
-1.3565743 -0.29144436 3.1610003
-1.357657 -0.29494795 3.1990001
-1.3411727 -0.29467136 3.1960001
-1.3267914 -0.29485577 3.1980002
-1.3111607 -0.29476357 3.1970003
-1.2955394 -0.29467136 3.1960001
-1.2703134 -0.29236639 3.1710002
-1.2540337 -0.29208976 3.1680002
-1.2237035 -0.28849396 3.1290002
-1.2068797 -0.28803295 3.1240001
-1.1908666 -0.28775635 3.1210001
-1.1756357 -0.28766418 3.1200001
-1.1604143 -0.28757197 3.1190002
-1.1606284 -0.29135215 3.1600001
-1.1394258 -0.28978476 3.1430001
-1.1466486 -0.29550117 3.2050002
-1.1328067 -0.29586998 3.2090001
-1.1335533 -0.30011117 3.2550001
-1.1177179 -0.30001897 3.2540002
-1.1025695 -0.30011117 3.2550001
-1.0874115 -0.30020335 3.256
-1.0725733 -0.30038777 3.2580001
-1.0583649 -0.30075657 3.2620001
-1.0463564 -0.30177078 3.2730002
-1.0310938 -0.30186298 3.2740002
-1.014581 -0.30158636 3.2710001
-0.99840206 -0.30140197 3.2690001
-0.98164099 -0.30103317 3.2650001
-0.96491784 -0.30066437 3.2610002
-0.942119 -0.29835936 3.2360001
-0.92872226 -0.29900479 3.2430003
-0.89413738 -0.29273516 3.1750002
-0.85327846 -0.28416058 3.0820003
-0.80595803 -0.27309656 2.9620001
-0.76940399 -0.26535174 2.878
-0.74152714 -0.26037294 2.8240001
-0.71519554 -0.25576293 2.7740002
-0.69364184 -0.25272036 2.7410002
-0.67786497 -0.25170612 2.73
-0.66219282 -0.25069195 2.7190001
-0.63946187 -0.24691175 2.6780002
-0.62531203 -0.24635854 2.6720002
-0.61213636 -0.24617414 2.6700001
-0.59942871 -0.24617414 2.6700001
-0.59001732 -0.24755715 2.6850002
-0.57723826 -0.24755715 2.6850002
-0.56466943 -0.24764934 2.6860001
-0.55229664 -0.24783374 2.6880002
-0.53990471 -0.24801813 2.6900001
-0.52729791 -0.24811035 2.6910002
-0.51487267 -0.24829474 2.6930001
-0.50168276 -0.24811035 2.6910002
-0.48905683 -0.24820255 2.6920002
-0.47801358 -0.24912454 2.7020001
-0.465498 -0.24930896 2.7040002
-0.45246112 -0.24921674 2.7030001
-0.43975908 -0.24930896 2.7040002
-0.42673174 -0.24921674 2.7030001
-0.41356084 -0.24903235 2.7010002
-0.40011221 -0.24866353 2.697
-0.38584012 -0.24774154 2.687
-0.37277395 -0.24755715 2.6850002
-0.35972676 -0.24737273 2.6830001
-0.3465693 -0.24709614 2.6800001
-0.33368954 -0.24700394 2.6790001
-0.32081929 -0.24691175 2.6780002
-0.30807358 -0.24691175 2.6780002
-0.29532787 -0.24691175 2.6780002
-0.28279319 -0.24709614 2.6800001
-0.27003798 -0.24709614 2.6800001
-0.25728273 -0.24709614 2.6800001
-0.24452753 -0.24709614 2.6800001
-0.23185879 -0.24718834 2.6810002
-0.21901707 -0.24709614 2.6800001
-0.20618491 -0.24700394 2.6790001
-0.19343443 -0.24700394 2.6790001
-0.18068397 -0.24700394 2.6790001
-0.16805887 -0.24718834 2.6810002
-0.15535682 -0.24728054 2.6820002
-0.14269841 -0.24746493 2.684
-0.12997256 -0.24755715 2.6850002
-0.11728083 -0.24774154 2.687
-0.10449228 -0.24774154 2.687
-0.091772005 -0.24792594 2.6890001
-0.078885846 -0.24764934 2.6860001
-0.066200502 -0.24801813 2.6900001
-0.053417541 -0.24811035 2.6910002
-0.040459052 -0.24718834 2.6810002
-0.027874706 -0.24875575 2.6980002
-0.015011525 -0.24838695 2.6940002
-0.002192921 -0.24875575 2.6980002
0.010671651 -0.24930896 2.7040002
0.023723926 -0.25124514 2.7250001
0.036976095 -0.25318134 2.7460001
0.05057396 -0.25585514 2.7750001
0.063873269 -0.25622395 2.779
0.079097211 -0.26286235 2.8510001
0.095006518 -0.26950076 2.9230001
0.11175023 -0.27650794 2.9990001
0.1302259 -0.28572798 3.0990002
0.14923242 -0.29411817 3.1900001
0.16627039 -0.29743737 3.2260001
0.18455186 -0.30223176 3.2780001
0.2003364 -0.30250838 3.2810001
0.21628113 -0.3029694 3.2860003
0.23227344 -0.30343038 3.2910001
0.24838871 -0.30398357 3.2970002
0.26432076 -0.30426016 3.3000002
0.28062081 -0.30490556 3.3070002
0.29653946 -0.30508998 3.3090003
0.31228831 -0.30508998 3.3090003
0.32813635 -0.30518219 3.3100002
0.34316275 -0.30453679 3.3030002
0.35877439 -0.30444455 3.302
0.37460342 -0.30453679 3.3030002
0.39091462 -0.30499777 3.3080001
0.40628994 -0.30472118 3.3050001
0.42214751 -0.30481339 3.3060002
0.43774968 -0.30472118 3.3050001
0.45334229 -0.30462897 3.3040001
0.46878344 -0.30444455 3.302
0.48347193 -0.30379915 3.2950001
0.4993057 -0.30389139 3.2960002
0.50374287 -0.29725298 3.2240002
0.51844323 -0.29688418 3.2200003
0.53376848 -0.29688418 3.2200003
0.54926431 -0.29697639 3.2210002
0.56441915 -0.29688418 3.2200003
0.58010453 -0.29706857 3.2220001
0.59543931 -0.29706857 3.2220001
0.61077416 -0.29706857 3.2220001
0.626109 -0.29706857 3.2220001
0.64363366 -0.29808277 3.233
0.6586132 -0.29789838 3.2310002
0.67023605 -0.29623875 3.2130001
0.68232757 -0.29485577 3.1980002
0.69362199 -0.29319617 3.1800001
0.70853412 -0.29310396 3.1790001
0.71455866 -0.28941596 3.1390002
0.72763926 -0.28867835 3.131
0.74135524 -0.28821737 3.1260002
0.75574929 -0.28803295 3.1240001
0.77037102 -0.28794077 3.1230001
0.78548604 -0.28803295 3.1240001
0.80035454 -0.28803295 3.1240001
0.81626678 -0.28840178 3.1280003
0.83513987 -0.28978476 3.1430001
0.85604918 -0.29181316 3.1650002
0.8694613 -0.29125997 3.1590002
0.88505632 -0.29144436 3.1610003
0.90038556 -0.29153657 3.1620002
0.91717184 -0.29208976 3.1680002
0.93254399 -0.29218197 3.1690001
0.94762653 -0.29218197 3.1690001
0.9535954 -0.28941596 3.1390002
0.96822673 -0.28932378 3.1380002
0.98316169 -0.28932378 3.1380002
0.9980967 -0.28932378 3.1380002
1.0175514 -0.29061458 3.1520002
1.0328805 -0.29070675 3.1530001
1.0485517 -0.29089117 3.1550002
1.0639048 -0.29098338 3.1560001
1.0758486 -0.29015356 3.1470001
1.1067712 -0.29439476 3.1930001
1.1230222 -0.29467136 3.1960001
1.1492738 -0.29752958 3.2270002
1.165715 -0.29780617 3.2300003
1.181088 -0.29780617 3.2300003
1.1949791 -0.29743737 3.2260001
1.2092074 -0.29716077 3.223
1.212389 -0.29421037 3.1910002
1.2275763 -0.29421037 3.1910002
1.228743 -0.29089117 3.1550002
1.2425764 -0.29061458 3.1520002
1.2579769 -0.29070675 3.1530001
1.2713684 -0.29033798 3.1490002
1.2859473 -0.29024577 3.1480002
1.3005166 -0.29015356 3.1470001
1.3142405 -0.28987697 3.1440001
1.327513 -0.28950816 3.1400001
1.3138127 -0.28333077 3.0730002
1.2929904 -0.27577037 2.9910002
1.2613351 -0.26608935 2.8860002
1.2419349 -0.25917435 2.8110001
1.2218207 -0.25225934 2.7360001
1.2095679 -0.24709614 2.6800001
1.2136574 -0.24534433 2.661
1.2258613 -0.24525213 2.6600001
1.241315 -0.24580534 2.6660001
1.2544739 -0.24589753 2.6670001
1.269068 -0.24626635 2.6710002
1.2937775 -0.24857134 2.6960001
1.3245407 -0.25198275 2.733
1.3551669 -0.25530195 2.7690001
1.3935481 -0.26000416 2.8200002
1.4408966 -0.26627377 2.8880002
1.4893961 -0.27263558 2.9570003
1.5385524 -0.27899736 3.0260003
1.5719428 -0.28240877 3.0630002
1.6295118 -0.29006135 3.1460001
1.644485 -0.29006135 3.1460001
1.6715901 -0.29218197 3.1690001
1.6866727 -0.29218197 3.1690001
1.7017554 -0.29218197 3.1690001
1.7000433 -0.28932378 3.1380002
1.717711 -0.28978476 3.1430001
1.7304647 -0.28941596 3.1390002
1.7192706 -0.28508258 3.0920002
1.7311827 -0.28462157 3.0870001
1.7441784 -0.28434497 3.0840001
1.758286 -0.28425276 3.0830002
1.7723843 -0.28416058 3.0820003
1.7876327 -0.28425276 3.0830002
1.8099055 -0.28545135 3.0960002
1.8275875 -0.28591236 3.1010001
1.8470994 -0.28664997 3.1090002
1.8600997 -0.28637338 3.1060002
1.8893696 -0.28858617 3.1300001
1.9188681 -0.29079896 3.154
1.9559525 -0.29411817 3.1900001
1.9859651 -0.29633099 3.2140002
2.0274138 -0.30020335 3.256
2.0429103 -0.30020335 3.256
2.0792694 -0.30324599 3.2890003
2.0955601 -0.30333817 3.2900002
2.1131437 -0.30361477 3.2930002
2.1430387 -0.30564317 3.3150001
2.1614211 -0.30601197 3.3190002
2.1778734 -0.30610418 3.3200002
2.195657 -0.30638078 3.3230002
2.2121382 -0.30647296 3.3240001
2.2279582 -0.30647296 3.3240001
2.2431035 -0.30638078 3.3230002
2.2589192 -0.30638078 3.3230002
2.2795265 -0.30702618 3.3300002
2.2960646 -0.30711836 3.3310001
2.3119183 -0.30711836 3.3310001
2.3270729 -0.30702618 3.3300002
2.3415146 -0.30684176 3.3280001
2.3559375 -0.30665737 3.3260002
2.3689146 -0.30628857 3.3220003
2.3667791 -0.30398357 3.2970002
2.3817482 -0.30389139 3.2960002
2.3988898 -0.30407578 3.2980001
2.4167829 -0.30435237 3.3010001
2.4339676 -0.30453679 3.3030002
2.4578462 -0.30555096 3.3140001
2.474365 -0.30564317 3.3150001
2.4938986 -0.30610418 3.3200002
2.508944 -0.30601197 3.3190002
2.5513644 -0.30923897 3.3540001
2.5673275 -0.30923897 3.3540001
2.5832908 -0.30923897 3.3540001
2.5984788 -0.30914679 3.3530002
2.5809088 -0.30518219 3.3100002
2.5943089 -0.30490556 3.3070002
2.6061018 -0.30444455 3.302
2.6170535 -0.30389139 3.2960002
2.6255517 -0.30306157 3.2870002
2.6379817 -0.30269277 3.2830002
2.6527984 -0.30260056 3.2820001
2.6968756 -0.30582759 3.3170002
2.7142982 -0.30601197 3.3190002
2.7325623 -0.30628857 3.3220003
2.7765021 -0.30942339 3.3560002
2.7908103 -0.30923897 3.3540001
2.8084474 -0.30942339 3.3560002
2.82442 -0.30942339 3.3560002
2.8403924 -0.30942339 3.3560002
2.8538117 -0.30914679 3.3530002
2.8689141 -0.30905458 3.3520002
2.8865888 -0.30923897 3.3540001
2.8869748 -0.30757937 3.3360002
2.9037223 -0.30767158 3.3370001
2.9169796 -0.30739498 3.3340001
2.934607 -0.30757937 3.3360002
2.9628665 -0.30887017 3.3500001
2.9752538 -0.30850139 3.3460002
2.9929667 -0.30868578 3.348
3.0071039 -0.30850139 3.3460002
3.0221252 -0.30840918 3.3450003
3.0371373 -0.30831698 3.3440001
3.0594437 -0.30896237 3.3510001
3.0588729 -0.30730277 3.3330002
3.0756586 -0.30739498 3.3340001
3.0896721 -0.30721059 3.3320003
3.1018019 -0.30684176 3.3280001
3.1185782 -0.30693397 3.3290002
3.1325393 -0.30674958 3.3270001
3.1483736 -0.30674958 3.3270001
3.1623061 -0.30656517 3.325
3.2087178 -0.30951557 3.3570001
3.2256558 -0.30960777 3.3580003
3.2387419 -0.30933118 3.3550003
3.2207558 -0.30610418 3.3200002
3.229733 -0.30545878 3.3130002
3.2170918 -0.30278498 3.2840002
0 -0 0
0 -0 0
-0 -0 0
-0 -0 0
-0 -0 0
-0 -0 0
-0 -0 0
-0 -0 0
-0 -0 0
-0 -0 0
-0 -0 0
-0 -0 0
-0 -0 0
-0 -0 0
-1.0501331 -0.094960541 1.0860001
-1.047851 -0.095222868 1.0890001
-1.044583 -0.095397748 1.0910001
-1.0412958 -0.095572621 1.0930001
-1.0379895 -0.095747501 1.095
-1.0346644 -0.095922381 1.097
-1.0313202 -0.096097268 1.0990001
-0 -0 0
-0 -0 0
-0 -0 0
-0 -0 0
-0 -0 0
-0 -0 0
-0 -0 0
-1.7574669 -0.17068414 1.9520001
-1.7508631 -0.17094645 1.955
-1.7406677 -0.17085902 1.9540001
-1.7295958 -0.17068414 1.9520001
-1.7176614 -0.17042182 1.9490001
-1.7066323 -0.17024694 1.9470001
-1.6964939 -0.17015949 1.9460001
-1.686365 -0.17007205 1.9450001
-1.6702098 -0.16937253 1.937
-0 -0 0
-0 -0 0
-0 -0 0
-0 -0 0
-0 -0 0
-0 -0 0
-0 -0 0
-0 -0 0
-0.91776335 -0.097933516 1.12
-0.91324747 -0.098020963 1.1210001
-0.90791225 -0.098020963 1.1210001
-0.90338212 -0.098108403 1.1220001
-0.89804202 -0.098108403 1.1220001
-0.89349759 -0.098195843 1.123
-0.88894367 -0.098283283 1.1240001
-0.88516623 -0.098458163 1.126
-0.88136989 -0.098633043 1.128
-0.87833107 -0.098895364 1.131
-0.87449181 -0.099070244 1.133
-0.87063366 -0.099245138 1.1350001
-0.8675186 -0.099507451 1.138
-0.86361754 -0.099682339 1.1400001
-0.85969746 -0.099857219 1.1420001
-0.85501015 -0.099944651 1.143
-0.85105675 -0.10011954 1.1450001
-0 -0 0
-0 -0 0
-0 -0 0
-0 -0 0
-0 -0 0
-0 -0 0
-1.3950815 -0.17182086 1.9650002
-1.38855 -0.17217062 1.9690001
-1.3819805 -0.17252038 1.973
-1.3746773 -0.1727827 1.9760001
-1.3763275 -0.17418176 1.9920001
-1.3888042 -0.17697987 2.0240002
-1.3744013 -0.17636779 2.0170002
-1.3756279 -0.17776681 2.033
-1.3713272 -0.17846635 2.0410001
-1.3636147 -0.17872868 2.0440001
-1.3558735 -0.178991 2.0470002
-1.3684897 -0.18196398 2.0810001
-1.3611968 -0.18231374 2.085
-1.375901 -0.18563649 2.1230001
-1.3741601 -0.18677323 2.1360002
-1.3837898 -0.18948387 2.1670001
-1.377279 -0.19000852 2.1730001
-1.3757435 -0.19123268 2.187
-1.3853122 -0.19403079 2.2190001
-1.3790878 -0.19464287 2.2260001
-1.3850923 -0.19700377 2.253
-1.3786395 -0.19761585 2.26
-1.3824095 -0.19971444 2.2840002
-1.3739409 -0.2000642 2.2880001
-1.3672216 -0.20067628 2.2950001
-1.3740281 -0.20329949 2.325
-1.3793766 -0.20574784 2.3530002
-1.3891104 -0.2088957 2.3890002
-1.3794703 -0.20915803 2.3920002
-1.3841001 -0.21160635 2.4200001
-1.3737166 -0.21178125 2.4220002
-1.380187 -0.21457934 2.4540002
-1.3735262 -0.2153663 2.4630001
-1.3800496 -0.21825184 2.4960001
-1.3851628 -0.22096251 2.5270002
-1.3769394 -0.22157459 2.5340002
-1.3783445 -0.2237606 2.559
-1.3683009 -0.22411038 2.5630002
-1.3709174 -0.2265587 2.5910001
-1.3617319 -0.22708336 2.5970001
-1.3706748 -0.23066841 2.638
-1.3771683 -0.23390372 2.6750002
-1.3843296 -0.23731391 2.7140002
-1.3875824 -0.24011201 2.7460001
-1.3905307 -0.2429101 2.7780001
-1.3921828 -0.24553332 2.8080001
-1.3969865 -0.24876863 2.845
-1.3965755 -0.25112954 2.8720002
-1.4045745 -0.25506434 2.9170001
-1.4173894 -0.25996104 2.973
-1.4254235 -0.26407075 3.0200002
-1.4316084 -0.26791814 3.0640001
-1.4456991 -0.27333945 3.1260002
-1.432652 -0.27368921 3.1300001
-1.4462913 -0.27919796 3.1930001
-1.431991 -0.27937287 3.1950002
-1.4167846 -0.27937287 3.1950002
-1.4024558 -0.27954775 3.1970003
-1.3876737 -0.27963519 3.1980002
-1.3733114 -0.27981004 3.2
-1.3580813 -0.27981004 3.2
-1.3424315 -0.27972263 3.1990001
-1.3276211 -0.27981004 3.2
-1.3115709 -0.27963519 3.1980002
-1.2866215 -0.2775366 3.1740003
-1.2703134 -0.27727428 3.1710002
-1.2421584 -0.27438876 3.1380002
-1.2240946 -0.27368921 3.1300001
-1.2068797 -0.27316457 3.1240001
-1.1904851 -0.27281481 3.1200001
-1.1752589 -0.27272737 3.1190002
-1.1600422 -0.27263993 3.118
-1.1580575 -0.27570036 3.1530001
-1.1488515 -0.2770994 3.1690001
-1.1466486 -0.28024727 3.2050002
-1.1508101 -0.2850565 3.2600002
-1.1339015 -0.28470671 3.256
-1.1300836 -0.28767973 3.2900002
-1.1144251 -0.28767973 3.2900002
-1.0984327 -0.28759229 3.2890003
-1.0824497 -0.28750482 3.2880001
-1.0661519 -0.28732997 3.2860003
-1.0479549 -0.28663042 3.2780001
-1.0323535 -0.28663042 3.2780001
-1.0158216 -0.2863681 3.2750001
-0.99962378 -0.28619322 3.2730002
-0.98344493 -0.28601834 3.2710001
-0.96521372 -0.28523138 3.2620001
-0.93978995 -0.28225839 3.2280002
-0.9166944 -0.27989751 3.2010002
-0.88456231 -0.27465105 3.141
-0.8458032 -0.26713115 3.0550001
-0.80650228 -0.25917408 2.9640002
-0.77047342 -0.25200394 2.8820002
-0.74231488 -0.24719471 2.8270001
-0.71596903 -0.24282268 2.7770002
-0.69490713 -0.24011201 2.7460001
-0.67761672 -0.23862551 2.7290001
-0.66219282 -0.23775111 2.7190001
-0.63970065 -0.23425348 2.6790001
-0.62507802 -0.23355398 2.6710002
-0.61190712 -0.23337908 2.6690001
-0.59897971 -0.23329164 2.6680002
-0.58957779 -0.23460324 2.6830001
-0.57680827 -0.23460324 2.6830001
-0.56403875 -0.23460324 2.6830001
-0.55188566 -0.23486556 2.6860001
-0.53990471 -0.23521532 2.6900001
-0.52729791 -0.23530278 2.6910002
-0.51525503 -0.23565254 2.6950002
-0.50261486 -0.23573998 2.6960001
-0.4897835 -0.23573998 2.6960001
-0.47836742 -0.23643951 2.7040002
-0.46567014 -0.23652695 2.7050002
-0.45279592 -0.23652695 2.7050002
-0.43992168 -0.23652695 2.7050002
-0.42673174 -0.23635206 2.7030001
-0.41340771 -0.23608974 2.7
-0.39981553 -0.23565254 2.6950002
-0.38555294 -0.23477814 2.6850002
-0.37249628 -0.23460324 2.6830001
-0.35945863 -0.23442838 2.6810002
-0.34643999 -0.23425348 2.6790001
-0.33344039 -0.2340786 2.677
-0.32057968 -0.23399116 2.6760001
-0.30795851 -0.2340786 2.677
-0.29532787 -0.23416606 2.6780002
-0.28268769 -0.23425348 2.6790001
-0.27003798 -0.23434092 2.6800001
-0.25737876 -0.23442838 2.6810002
-0.24461879 -0.23442838 2.6810002
-0.23185879 -0.23442838 2.6810002
-0.21909882 -0.23442838 2.6810002
-0.20633884 -0.23442838 2.6810002
-0.19350663 -0.23434092 2.6800001
-0.18075141 -0.23434092 2.6800001
-0.16812156 -0.23451582 2.6820002
-0.15541475 -0.23460324 2.6830001
-0.14269841 -0.23469068 2.684
-0.13002096 -0.23486556 2.6860001
-0.11732449 -0.23504046 2.6880002
-0.10460895 -0.23521532 2.6900001
-0.091874391 -0.23539022 2.6920002
-0.079238281 -0.23591486 2.6980002
-0.066446602 -0.23608974 2.7
-0.053635892 -0.23626462 2.7020001
-0.04074578 -0.23608974 2.7
-0.027864372 -0.2358274 2.697
-0.015028241 -0.2358274 2.697
-0.002228684 -0.23976225 2.7420001
0.010829516 -0.23993713 2.7440002
0.023732632 -0.23836319 2.7260001
0.037406992 -0.2429101 2.7780001
0.050683312 -0.24317244 2.7810001
0.064654738 -0.24597053 2.8130002
0.079208188 -0.24964303 2.855
0.095136523 -0.25593877 2.927
0.11219738 -0.26328379 3.0110002
0.1302259 -0.27097857 3.0990002
0.14923242 -0.27893564 3.1900001
0.16647656 -0.2824333 3.2300003
0.18460816 -0.28671786 3.279
0.20039746 -0.28698018 3.2820001
0.21634695 -0.28741741 3.2870002
0.23234402 -0.28785458 3.2920001
0.24861473 -0.28855413 3.3000002
0.26448095 -0.28872898 3.302
0.28062081 -0.28916621 3.3070002
0.29644981 -0.28925365 3.3080001
0.31209958 -0.28916621 3.3070002
0.32773983 -0.28907877 3.3060002
0.34305882 -0.28872898 3.302
0.35866576 -0.28864157 3.3010001
0.37460342 -0.28881645 3.3030002
0.39044192 -0.28890389 3.3040001
0.4060441 -0.28881645 3.3030002
0.4206152 -0.28802949 3.2940001
0.43629274 -0.28802949 3.2940001
0.45251903 -0.28837925 3.2980001
0.46807361 -0.28829181 3.2970002
0.47892335 -0.28540626 3.2640002
0.48824701 -0.28182119 3.223
0.50343037 -0.28173375 3.2220001
0.51796019 -0.28129655 3.2170002
0.53343695 -0.28138399 3.2180002
0.5485822 -0.28129655 3.2170002
0.56389326 -0.28129655 3.2170002
0.57938433 -0.28138399 3.2180002
0.5947001 -0.28138399 3.2180002
0.61001587 -0.28138399 3.2180002
0.62513739 -0.28129655 3.2170002
0.63905478 -0.28068447 3.21
0.65392482 -0.28050959 3.2080002
0.66981888 -0.28077191 3.2110002
0.67528671 -0.27674964 3.1650002
0.69296765 -0.27779892 3.177
0.6998418 -0.27456361 3.1400001
0.71433109 -0.27438876 3.1380002
0.72670972 -0.27342689 3.1270001
0.7392208 -0.27255249 3.1170001
0.7547816 -0.27281481 3.1200001
0.76963103 -0.27281481 3.1200001
0.78448033 -0.27281481 3.1200001
0.79907358 -0.27272737 3.1190002
0.81339622 -0.27255249 3.1170001
0.83115417 -0.27351433 3.1280003
0.85631967 -0.27683708 3.1660001
0.86891079 -0.27605009 3.1570001
0.88421637 -0.27613756 3.1580002
0.89896172 -0.27605009 3.1570001
0.9113816 -0.27526316 3.1480002
0.9248929 -0.27482593 3.1430001
0.93835658 -0.27438876 3.1380002
0.95268399 -0.27421385 3.1360002
0.96699244 -0.27403897 3.1340001
0.9815951 -0.27395153 3.1330001
0.99650633 -0.27395153 3.1330001
1.0098035 -0.27351433 3.1280003
1.0250185 -0.27360177 3.1290002
1.0405753 -0.27377665 3.131
1.0564884 -0.27403897 3.1340001
1.0741394 -0.27473852 3.1420002
1.1064246 -0.27911052 3.1920002
1.1233736 -0.27954775 3.1970003
1.1471368 -0.28164631 3.2210002
1.1635497 -0.28190863 3.2240002
1.1818193 -0.28260815 3.2320001
1.1938678 -0.28182119 3.223
1.2088323 -0.28173375 3.2220001
1.2131488 -0.27919796 3.1930001
1.2298845 -0.27954775 3.1970003
1.2291324 -0.27596268 3.1560001
1.2417879 -0.27543801 3.1500001
1.255583 -0.27517569 3.1470001
1.2697535 -0.27500084 3.1450002
1.2847219 -0.27500084 3.1450002
1.2996901 -0.27500084 3.1450002
1.3138225 -0.27482593 3.1430001
1.3110248 -0.27115342 3.1010001
1.2902983 -0.26389587 3.0180001
1.2705112 -0.25698805 2.9390001
1.2403566 -0.24815655 2.8380001
1.227355 -0.2429101 2.7780001
1.217355 -0.23836319 2.7260001
1.2082139 -0.2340786 2.677
1.2132013 -0.23259211 2.6600001
1.2244788 -0.23232979 2.6570001
1.2366589 -0.23224235 2.6560001
1.2530628 -0.23294187 2.664
1.2647917 -0.232767 2.6620002
1.2942573 -0.2358274 2.697
1.324056 -0.23888783 2.7320001
1.3541881 -0.24194826 2.7670002
1.3935481 -0.24658261 2.8200002
1.437903 -0.25200394 2.8820002
1.4898998 -0.25864944 2.9580002
1.5538057 -0.26721862 3.0560002
1.597603 -0.27220273 3.1130002
1.6300298 -0.27517569 3.1470001
1.6533712 -0.27657476 3.1630001
1.6705351 -0.27692452 3.1670001
1.6861405 -0.27701196 3.1680002
1.7012184 -0.27701196 3.1680002
1.7179214 -0.27727428 3.1710002
1.7341065 -0.27744916 3.1730001
1.7288109 -0.27421385 3.1360002
1.7431803 -0.27412644 3.1350002
1.7474459 -0.27246505 3.1160002
1.7634073 -0.27263993 3.118
1.7793877 -0.27281481 3.1200001
1.8017131 -0.27395153 3.1330001
1.8108261 -0.27307713 3.1230001
1.8274434 -0.27333945 3.1260002
1.8493937 -0.27438876 3.1380002
1.8494759 -0.27220273 3.1130002
1.8864501 -0.27543801 3.1500001
1.9032532 -0.27570036 3.1530001
1.9389449 -0.27867332 3.187
1.9786392 -0.28217095 3.2270002
2.0131531 -0.28488162 3.2580001
2.0473394 -0.28750482 3.2880001
2.0636158 -0.28759229 3.2890003
2.0792694 -0.28759229 3.2890003
2.0949233 -0.28759229 3.2890003
2.1125019 -0.28785458 3.2920001
2.1275234 -0.28776714 3.2910001
2.1425357 -0.28767973 3.2900002
2.1575379 -0.28759229 3.2890003
2.1718702 -0.28741741 3.2870002
2.1868489 -0.28732997 3.2860003
2.2031584 -0.28741741 3.2870002
2.2194777 -0.28750482 3.2880001
2.259599 -0.29065269 3.3240001
2.278842 -0.29108992 3.3290002
2.2953753 -0.29117733 3.3300002
2.3112242 -0.29117733 3.3300002
2.3270729 -0.29117733 3.3300002
2.340811 -0.29091501 3.3270001
2.3552289 -0.29074013 3.325
2.3689146 -0.29047784 3.3220003
2.3861611 -0.29065269 3.3240001
2.3803029 -0.28802949 3.2940001
2.3981624 -0.28829181 3.2970002
2.4153187 -0.28846669 3.2990003
2.431757 -0.28855413 3.3000002
2.434113 -0.28698018 3.2820001
2.4564512 -0.28776714 3.2910001
2.4721143 -0.28776714 3.2910001
2.508944 -0.29021549 3.3190002
2.5201762 -0.28969085 3.3130002
2.5382404 -0.28995317 3.3160002
2.5540228 -0.28995317 3.3160002
2.5419059 -0.2868053 3.2800002
2.5559573 -0.28663042 3.2780001
2.5699897 -0.28645557 3.2760003
2.584003 -0.28628066 3.2740002
2.5956151 -0.28584346 3.2690001
2.6223567 -0.28706765 3.2830002
2.6339638 -0.28663042 3.2780001
2.6495655 -0.28663042 3.2780001
2.6952496 -0.28986573 3.3150001
2.7118447 -0.28995317 3.3160002
2.7300947 -0.29021549 3.3190002
2.7756751 -0.29336336 3.3550003
2.7891464 -0.29310104 3.3520002
2.8067737 -0.29327592 3.3540001
2.8227367 -0.29327592 3.3540001
2.8378532 -0.29318848 3.3530002
2.8512583 -0.29292616 3.3500001
2.8689141 -0.29310104 3.3520002
2.8702369 -0.29161456 3.3350003
2.8852439 -0.29152709 3.3340001
2.8950207 -0.29091501 3.3270001
2.91348 -0.29117733 3.3300002
2.931968 -0.29143968 3.3330002
2.9602132 -0.29266384 3.3470001
2.9725862 -0.29231408 3.3430002
2.9902849 -0.29248896 3.3450003
3.0053062 -0.29240152 3.3440001
3.0203183 -0.29231408 3.3430002
3.0307796 -0.29178941 3.3370001
3.0548787 -0.2925764 3.3460002
3.0607085 -0.29161456 3.3350003
3.0756586 -0.29152709 3.3340001
3.0896721 -0.29135224 3.3320003
3.1036661 -0.29117733 3.3300002
3.1204517 -0.29126477 3.3310001
3.1334808 -0.29100245 3.3280001
3.1502664 -0.29108992 3.3290002
3.1965446 -0.293888 3.3610001
3.2115853 -0.29380056 3.3600001
3.2285373 -0.293888 3.3610001
3.239707 -0.2934508 3.3560002
3.2217259 -0.29039037 3.3210001
3.2453308 -0.29108992 3.3290002
3.2141528 -0.28689274 3.2810001
0 -0 0
0 -0 0
-0 -0 0
-0 -0 0
-0 -0 0
-0 -0 0
-0 -0 0
-0 -0 0
-0 -0 0
-0 -0 0
-0 -0 0
-0 -0 0
-0 -0 0
-0 -0 0
-1.0501331 -0.089791827 1.0860001
-1.047851 -0.090039872 1.0890001
-1.044583 -0.09020523 1.0910001
-1.0412958 -0.090370588 1.0930001
-1.0379895 -0.090535954 1.095
-1.0346644 -0.090701312 1.097
-1.0313202 -0.090866677 1.0990001
-0 -0 0
-0 -0 0
-0 -0 0
-0 -0 0
-0 -0 0
-0 -0 0
-1.7685673 -0.16155913 1.9540001
-1.7592676 -0.16155913 1.9540001
-1.7499676 -0.16155913 1.9540001
-1.7397768 -0.16147645 1.9530001
-1.7295958 -0.16139378 1.9520001
-1.7176614 -0.16114573 1.9490001
-1.711015 -0.16139378 1.9520001
-1.7008529 -0.16131109 1.9510001
-1.6907001 -0.1612284 1.95
-1.6779702 -0.16089769 1.9460001
-0 -0 0
-0 -0 0
-0 -0 0
-0 -0 0
-0 -0 0
-0 -0 0
-0 -0 0
-0 -0 0
-0.91776335 -0.092602976 1.12
-0.91324747 -0.092685662 1.1210001
-0.90791225 -0.092685662 1.1210001
-0.90338212 -0.092768349 1.1220001
-0.89884233 -0.092851028 1.123
-0.89429325 -0.092933707 1.1240001
-0.88973445 -0.093016386 1.125
-0.88516623 -0.093099073 1.126
-0.88136989 -0.093264431 1.128
-0.87833107 -0.093512475 1.131
-0.87449181 -0.093677834 1.133
-0.87063366 -0.093843207 1.1350001
-0.8675186 -0.094091244 1.138
-0.86361754 -0.09425661 1.1400001
-0.85894459 -0.094339289 1.141
-0.85426217 -0.094421975 1.1420001
-0.84808356 -0.094339289 1.141
-0 -0 0
-0 -0 0
-0 -0 0
-0 -0 0
-0 -0 0
-1.4022895 -0.16222058 1.9620001
-1.3950815 -0.16246863 1.9650002
-1.38855 -0.16279936 1.9690001
-1.382681 -0.16321276 1.9740001
-1.3760687 -0.16354348 1.978
-1.3991282 -0.16742951 2.0250001
-1.3901764 -0.16751218 2.026
-1.3757641 -0.16693342 2.0190001
-1.3763046 -0.16817364 2.0340002
-1.3760303 -0.16933116 2.0480001
-1.3649489 -0.1691658 2.046
-1.3810436 -0.17239037 2.085
-1.3652017 -0.17164625 2.0760002
-1.3833939 -0.17520155 2.1190002
-1.375901 -0.17553227 2.1230001
-1.3773767 -0.17702052 2.141
-1.3793198 -0.17859146 2.1600001
-1.3766452 -0.17958365 2.1720002
-1.3757435 -0.18082386 2.187
-1.384688 -0.18338698 2.2180002
-1.380327 -0.1842138 2.2280002
-1.3857071 -0.1863635 2.2540002
-1.3786395 -0.18685958 2.26
-1.3733306 -0.18760371 2.2690001
-1.3721393 -0.18892662 2.2850001
-1.3707961 -0.19024952 2.3010001
-1.3740281 -0.19223386 2.325
-1.3787904 -0.19446626 2.352
-1.3885289 -0.19744278 2.388
-1.3783169 -0.19760816 2.3900001
-1.3835281 -0.2000059 2.4190001
-1.3731494 -0.20017126 2.421
-1.3796245 -0.20281707 2.4530001
-1.3729687 -0.2035612 2.4620001
-1.3806026 -0.20645505 2.4970002
-1.3851628 -0.20893548 2.5270002
-1.3758526 -0.20934889 2.5320001
-1.3794219 -0.21174665 2.5610001
-1.3683009 -0.21191201 2.5630002
-1.3714465 -0.21430975 2.592
-1.3617319 -0.21472317 2.5970001
-1.3706748 -0.21811309 2.638
-1.377683 -0.22125499 2.6760001
-1.3853496 -0.22456223 2.7160001
-1.3880879 -0.22712536 2.7470002
-1.3915318 -0.22985384 2.7800002
-1.3951576 -0.232665 2.8140001
-1.3960044 -0.23506275 2.8430002
-1.3970617 -0.2375432 2.8730001
-1.406019 -0.24142919 2.9200001
-1.4188197 -0.24605934 2.9760001
-1.4249514 -0.24961464 3.0190001
-1.4339447 -0.25374871 3.0690002
-1.4461615 -0.25854421 3.1270001
-1.4509606 -0.2620995 3.1700001
-1.4485562 -0.26441458 3.1980002
-1.4333355 -0.26441458 3.1980002
-1.4172281 -0.26424924 3.1960001
-1.4028944 -0.26441458 3.1980002
-1.3881077 -0.26449728 3.1990001
-1.3737407 -0.26466265 3.2010002
-1.3585058 -0.26466265 3.2010002
-1.3428512 -0.26457995 3.2
-1.3284509 -0.26474532 3.2020001
-1.302138 -0.26251292 3.1750002
-1.2870269 -0.26251292 3.1750002
-1.2590964 -0.25986713 3.1430001
-1.2425542 -0.25953639 3.1390002
-1.2248768 -0.25895762 3.1320002
-1.2072661 -0.25837886 3.1250002
-1.1904851 -0.25796545 3.1200001
-1.1752589 -0.25788277 3.1190002
-1.1600422 -0.25780007 3.118
-1.1624649 -0.26168612 3.1650002
-1.1575521 -0.26400119 3.1930001
-1.1545196 -0.26681235 3.2270002
-1.1515161 -0.26970619 3.2620001
-1.1433042 -0.2714425 3.2830002
-1.1307704 -0.27218661 3.2920001
-1.1151024 -0.27218661 3.2920001
-1.0991006 -0.27210394 3.2910001
-1.0831082 -0.27202126 3.2900002
-1.0668007 -0.27185589 3.2880001
-1.0492337 -0.2713598 3.2820001
-1.0332984 -0.27127713 3.2810001
-1.0170623 -0.27111176 3.279
-1.0008454 -0.27094641 3.2770002
-0.98464751 -0.27078104 3.2750001
-0.96403015 -0.26937547 3.2580001
-0.93978995 -0.26689503 3.2280002
-0.916408 -0.26457995 3.2
-0.88428074 -0.25961909 3.1400001
-0.84524953 -0.25242582 3.0530002
-0.80677432 -0.24514987 2.9650002
-0.77100807 -0.23845267 2.8840001
-0.74284011 -0.23390523 2.8290002
-0.71751595 -0.23010188 2.7830002
-0.69591945 -0.22737341 2.7500002
-0.67587858 -0.22505832 2.7220001
-0.66194928 -0.2247276 2.7180002
-0.63993943 -0.22158571 2.6800001
-0.62484401 -0.2207589 2.6700001
-0.61167783 -0.22059354 2.6680002
-0.59875518 -0.22051086 2.6670001
-0.58913833 -0.22166841 2.6810002
-0.57616335 -0.22158571 2.6800001
-0.56361836 -0.22166841 2.6810002
-0.55147469 -0.22191642 2.684
-0.53849977 -0.22183375 2.6830001
-0.52847356 -0.22299129 2.697
-0.51716691 -0.22365275 2.7050002
-0.50466561 -0.22381809 2.707
-0.49014685 -0.22307397 2.6980002
-0.47836742 -0.22357006 2.7040002
-0.46567014 -0.22365275 2.7050002
-0.45279592 -0.22365275 2.7050002
-0.43975908 -0.22357006 2.7040002
-0.4265739 -0.22340471 2.7020001
-0.41325459 -0.22315665 2.6990001
-0.39833197 -0.22199912 2.6850002
-0.38526574 -0.22183375 2.6830001
-0.37221861 -0.22166841 2.6810002
-0.35919046 -0.22150303 2.6790001
-0.34618133 -0.22133766 2.677
-0.33331585 -0.22125499 2.6760001
-0.32057968 -0.22125499 2.6760001
-0.30795851 -0.22133766 2.677
-0.29532787 -0.22142035 2.6780002
-0.28268769 -0.22150303 2.6790001
-0.27013877 -0.22166841 2.6810002
-0.25747475 -0.22175108 2.6820002
-0.24489249 -0.22191642 2.684
-0.23211822 -0.22191642 2.684
-0.21926224 -0.22183375 2.6830001
-0.2064158 -0.22175108 2.6820002
-0.19365105 -0.22175108 2.6820002
-0.18081887 -0.22166841 2.6810002
-0.16812156 -0.22175108 2.6820002
-0.15547267 -0.22191642 2.684
-0.14275157 -0.22199912 2.6850002
-0.13006938 -0.22216447 2.687
-0.11741177 -0.22241251 2.6900001
-0.10468673 -0.22257788 2.6920002
-0.092010908 -0.2229086 2.6960001
-0.079297014 -0.22323933 2.7
-0.066594265 -0.22373542 2.7060001
-0.0541123 -0.22538905 2.7260001
-0.041243784 -0.22596781 2.733
-0.028287971 -0.22638123 2.7380002
-0.015284562 -0.22679462 2.743
-0.0022311225 -0.22695999 2.7450001
0.010849249 -0.2272907 2.7490001
0.023750044 -0.22555441 2.7280002
0.037406992 -0.22968847 2.7780001
0.050701536 -0.2300192 2.7820001
0.0647007 -0.23274767 2.8150001
0.079319164 -0.23638566 2.8590002
0.095234036 -0.24225602 2.9300001
0.11230917 -0.24920124 3.0140002
0.13026792 -0.25631183 3.1000001
0.14923242 -0.26375315 3.1900001
0.16663118 -0.26730841 3.233
0.18460816 -0.27111176 3.279
0.20003112 -0.27086374 3.2760003
0.2182557 -0.27417099 3.3160002
0.23396732 -0.27408829 3.3150001
0.2489914 -0.27326149 3.3050001
0.26472124 -0.27326149 3.3050001
0.28070566 -0.27350953 3.3080001
0.29644981 -0.27350953 3.3080001
0.31209958 -0.27342683 3.3070002
0.32764068 -0.27326149 3.3050001
0.34305882 -0.27301344 3.302
0.35855711 -0.27284807 3.3000002
0.37483025 -0.27326149 3.3050001
0.39056009 -0.27326149 3.3050001
0.40628994 -0.27326149 3.3050001
0.42189211 -0.27317879 3.3040001
0.4374848 -0.27309611 3.3030002
0.45306787 -0.27301344 3.302
0.46849954 -0.27284807 3.3000002
0.47818971 -0.26945814 3.2590001
0.48839852 -0.26656431 3.2240002
0.50327414 -0.26631626 3.2210002
0.51796019 -0.26598555 3.2170002
0.53293961 -0.26582018 3.2150002
0.54824114 -0.26582018 3.2150002
0.56354266 -0.26582018 3.2150002
0.57884419 -0.26582018 3.2150002
0.59414566 -0.26582018 3.2150002
0.60925764 -0.2657375 3.2140002
0.62436008 -0.2656548 3.2130001
0.6388557 -0.26532409 3.2090001
0.65372103 -0.26515874 3.2070003
0.66001457 -0.26160342 3.164
0.67742032 -0.26251292 3.1750002
0.69274956 -0.26259559 3.1760001
0.70006466 -0.25970176 3.141
0.71455866 -0.25953639 3.1390002
0.72438574 -0.2577174 3.1170001
0.73850936 -0.25746936 3.1140001
0.75381398 -0.25763473 3.1160002
0.76839763 -0.25755206 3.1150002
0.78297168 -0.25746936 3.1140001
0.79523063 -0.25664255 3.1040001
0.81339622 -0.2577174 3.1170001
0.83168554 -0.25879225 3.1300001
0.84414828 -0.25804812 3.1210001
0.86863559 -0.26094198 3.1560001
0.88365632 -0.26094198 3.1560001
0.89839226 -0.26085931 3.1550002
0.9116711 -0.26036322 3.1490002
0.9248929 -0.25986713 3.1430001
0.93835658 -0.25945371 3.1380002
0.95207638 -0.259123 3.1340001
0.96637541 -0.25895762 3.1320002
0.98096848 -0.25887495 3.131
0.99587017 -0.25887495 3.131
1.0101264 -0.25870958 3.1290002
1.025346 -0.25879225 3.1300001
1.0412401 -0.2590403 3.1330001
1.0568256 -0.25920567 3.1350002
1.0734556 -0.25961909 3.1400001
1.0977589 -0.26185146 3.1670001
1.1244277 -0.26457995 3.2
1.145 -0.26582018 3.2150002
1.1617451 -0.26615089 3.2190001
1.179991 -0.26681235 3.2270002
1.1934974 -0.26639894 3.2220001
1.2065811 -0.26590285 3.2160001
1.2135289 -0.26408386 3.1940002
1.2144964 -0.26102465 3.1570001
1.2295219 -0.26102465 3.1570001
1.2394226 -0.2599498 3.1440001
1.2539872 -0.25986713 3.1430001
1.2685422 -0.25978443 3.1420002
1.2834964 -0.25978443 3.1420002
1.2988636 -0.25986713 3.1430001
1.3134046 -0.25978443 3.1420002
1.3110248 -0.25639451 3.1010001
1.2907258 -0.24961464 3.0190001
1.2592715 -0.24085043 2.9130001
1.2412307 -0.2348147 2.8400002
1.2282387 -0.22985384 2.7800002
1.2178017 -0.22547174 2.7270002
1.2077626 -0.22125499 2.6760001
1.2163939 -0.22051086 2.6670001
1.2230963 -0.21943599 2.654
1.2352622 -0.21935332 2.6530001
1.2483591 -0.21943599 2.654
1.2666923 -0.22042817 2.6660001
1.2932975 -0.22282593 2.6950002
1.3051548 -0.22266056 2.6930001
1.3527199 -0.22853094 2.7640002
1.393054 -0.23307841 2.8190002
1.4389008 -0.23845267 2.8840001
1.507025 -0.24738225 2.9920001
1.5614324 -0.25391406 3.0710001
1.6150519 -0.26019785 3.1470001
1.6450508 -0.26259559 3.1760001
1.6538939 -0.26160342 3.164
1.6700076 -0.26176879 3.1660001
1.6861405 -0.26193416 3.1680002
1.7012184 -0.26193416 3.1680002
1.6962508 -0.25887495 3.131
1.7106061 -0.25879225 3.1300001
1.7255032 -0.25879225 3.1300001
1.7387319 -0.25854421 3.1270001
1.7480067 -0.2577174 3.1170001
1.7634073 -0.25780007 3.118
1.7793877 -0.25796545 3.1200001
1.801138 -0.25895762 3.1320002
1.8172042 -0.259123 3.1340001
1.8332894 -0.25928834 3.1360002
1.849983 -0.25953639 3.1390002
1.8672993 -0.25986713 3.1430001
1.9062129 -0.26317436 3.1830001
1.9231731 -0.2634224 3.1860001
1.9389449 -0.2635051 3.187
1.978026 -0.26672965 3.2260001
2.0137711 -0.26945814 3.2590001
2.0473394 -0.27185589 3.2880001
2.0629883 -0.27185589 3.2880001
2.0786371 -0.27185589 3.2880001
2.0942862 -0.27185589 3.2880001
2.1118603 -0.27210394 3.2910001
2.1268771 -0.27202126 3.2900002
2.1418843 -0.27193859 3.2890003
2.1299865 -0.26846597 3.2470002
2.1447794 -0.26838329 3.2460001
2.1429257 -0.26623359 3.2200003
2.1582508 -0.26623359 3.2200003
2.1978769 -0.2692101 3.256
2.2140536 -0.2692928 3.2570002
2.2507756 -0.27185589 3.2880001
2.2643566 -0.27160785 3.2850001
2.3105302 -0.27524585 3.3290002
2.3263741 -0.27524585 3.3290002
2.3387003 -0.27483243 3.3240001
2.3538122 -0.27474976 3.3230002
2.3682015 -0.27458438 3.3210001
2.3617539 -0.27202126 3.2900002
2.3788576 -0.27218661 3.2920001
2.370522 -0.26945814 3.2590001
2.3853009 -0.26937547 3.2580001
2.402281 -0.26954085 3.2600002
2.421505 -0.26995423 3.2650001
2.4392836 -0.27020228 3.2680001
2.4540863 -0.27011961 3.2670002
2.4696352 -0.27011961 3.2670002
2.5118084 -0.27301344 3.302
2.5214005 -0.27235198 3.2940001
2.5355375 -0.27218661 3.2920001
2.5225315 -0.26912743 3.2550001
2.5325654 -0.26854864 3.2480001
2.5472395 -0.26846597 3.2470002
2.5642717 -0.26863134 3.2490001
2.5924392 -0.26995423 3.2650001
2.5999911 -0.26912743 3.2550001
2.6307499 -0.27069837 3.2740002
2.6463323 -0.27069837 3.2740002
2.6936235 -0.27392295 3.3130002
2.7085736 -0.27384025 3.3120003
2.7259817 -0.27400562 3.3140001
2.7723656 -0.2770648 3.3510001
2.7883141 -0.2770648 3.3510001
2.8059368 -0.27723017 3.3530002
2.8218951 -0.27723017 3.3530002
2.8378532 -0.27723017 3.3530002
2.8512583 -0.27698213 3.3500001
2.856076 -0.27590728 3.3370001
2.8693759 -0.27565923 3.3340001
2.8835132 -0.27549389 3.3320003
2.8932805 -0.2749151 3.325
2.9099803 -0.2749978 3.3260002
2.9293289 -0.27532852 3.3300002
2.9584444 -0.27656874 3.3450003
2.9788105 -0.27698213 3.3500001
2.9974365 -0.27723017 3.3530002
3.0133948 -0.27723017 3.3530002
3.0284495 -0.2771475 3.3520002
3.0362289 -0.27640337 3.3430002
3.0503137 -0.27623799 3.3410001
3.0607085 -0.27574193 3.3350003
3.0756586 -0.27565923 3.3340001
3.0905993 -0.27557656 3.3330002
3.1064622 -0.27557656 3.3330002
3.1241992 -0.27574193 3.3350003
3.1353638 -0.27532852 3.3300002
3.1512127 -0.27532852 3.3300002
3.1974957 -0.27797431 3.3620002
3.2144527 -0.27805698 3.3630002
3.2333403 -0.27830502 3.3660002
3.2638407 -0.27954525 3.381
3.2459786 -0.27665141 3.3460002
3.2482555 -0.27549389 3.3320003
3.269012 -0.27590728 3.3370001
0 -0 0
0 -0 0
-0 -0 0
-0 -0 0
-0 -0 0
-0 -0 0
-0 -0 0
-0 -0 0
-0 -0 0
-0 -0 0
-0 -0 0
-0 -0 0
-0 -0 0
-0 -0 0
-1.0501331 -0.084623098 1.0860001
-1.0488131 -0.084934779 1.09
-1.044583 -0.085012704 1.0910001
-1.0412958 -0.085168548 1.0930001
-1.0379895 -0.085324392 1.095
-1.0346644 -0.085480228 1.097
-1.0313202 -0.085636079 1.0990001
-0 -0 0
-0 -0 0
-0 -0 0
-0 -0 0
-0 -0 0
-0 -0 0
-1.7676622 -0.15218131 1.9530001
-1.7592676 -0.15225923 1.9540001
-1.749072 -0.15218131 1.9530001
-1.7379951 -0.15202548 1.9510001
-1.7287097 -0.15202548 1.9510001
-1.7176614 -0.15186962 1.9490001
-1.7066323 -0.15171379 1.9470001
-1.6956221 -0.15155794 1.9450001
-1.685498 -0.15148002 1.9440001
-1.6745212 -0.15132418 1.9420002
-0 -0 0
-0 -0 0
-0 -0 0
-0 -0 0
-0 -0 0
-0 -0 0
-0 -0 0
-0 -0 0
-0.91776335 -0.087272435 1.12
-0.91324747 -0.087350361 1.1210001
-0.90872216 -0.087428287 1.1220001
-0.90338212 -0.087428287 1.1220001
-0.89884233 -0.087506197 1.123
-0.89429325 -0.087584123 1.1240001
-0.88973445 -0.087662041 1.125
-0.88516623 -0.087739967 1.126
-0.88136989 -0.087895811 1.128
-0.87833107 -0.088129573 1.131
-0.87449181 -0.088285416 1.133
-0.87063366 -0.088441268 1.1350001
-0.86675632 -0.088597111 1.1370001
-0.86285996 -0.088752955 1.1390001
-0.85894459 -0.088908792 1.141
-0.85426217 -0.088986717 1.1420001
-0.84734035 -0.088830881 1.1400001
-0 -0 0
-0 -0 0
-0 -0 0
-0 -0 0
-0 -0 0
-1.4108661 -0.15381767 1.9740001
-1.3957914 -0.15319429 1.9660001
-1.3892553 -0.15350598 1.9700001
-1.3833815 -0.1538956 1.9750001
-1.3788514 -0.15444104 1.9820001
-1.3984373 -0.15771377 2.0240002
-1.3894902 -0.15779169 2.0250001
-1.3887109 -0.15880467 2.0380001
-1.3837477 -0.15935011 2.0450001
-1.3753585 -0.15950596 2.0470002
-1.3909669 -0.16246699 2.085
-1.381706 -0.16254492 2.0860002
-1.3665168 -0.16192153 2.0780001
-1.3833939 -0.16511634 2.1190002
-1.3746047 -0.16527218 2.1210001
-1.3786634 -0.16698647 2.1430001
-1.3812355 -0.16854489 2.1630001
-1.377279 -0.16932411 2.1730001
-1.3757435 -0.17041501 2.187
-1.384688 -0.1728306 2.2180002
-1.3815659 -0.17376564 2.23
-1.3838627 -0.17540202 2.2510002
-1.3786395 -0.17610331 2.26
-1.3727254 -0.17672668 2.2680001
-1.3715389 -0.17797343 2.2840002
-1.3725833 -0.17953187 2.3040001
-1.3734372 -0.18109031 2.3240001
-1.3782041 -0.18319419 2.3510001
-1.3879474 -0.18599938 2.3870001
-1.3771634 -0.1860773 2.388
-1.3829563 -0.18841496 2.4180002
-1.3657761 -0.18763575 2.4080002
-1.3790622 -0.1910643 2.4520001
-1.3729687 -0.19184352 2.4620001
-1.3800496 -0.19449286 2.4960001
-1.3851628 -0.19690844 2.5270002
-1.3753092 -0.19722013 2.5310001
-1.3788834 -0.19947986 2.5600002
-1.3672332 -0.19955778 2.5610001
-1.3714465 -0.20197335 2.592
-1.3617319 -0.20236297 2.5970001
-1.3706748 -0.20555775 2.638
-1.377683 -0.20851879 2.6760001
-1.3858597 -0.2117136 2.7170002
-1.3880879 -0.21405125 2.7470002
-1.3920324 -0.21670058 2.7810001
-1.391687 -0.21872655 2.8070002
-1.3940403 -0.22122005 2.8390002
-1.3965755 -0.22379147 2.8720002
-1.4065006 -0.22760963 2.9210002
-1.4188197 -0.23189533 2.9760001
-1.4258955 -0.23540181 3.0210001
-1.4358137 -0.23945375 3.0730002
-1.447549 -0.24389529 3.1300001
-1.4564533 -0.24794723 3.1820002
-1.4517269 -0.24973942 3.2050002
-1.4346801 -0.24942775 3.2010002
-1.4349656 -0.25215501 3.2360001
-1.4195641 -0.25215501 3.2360001
-1.4041626 -0.25215501 3.2360001
-1.3887612 -0.25215501 3.2360001
-1.3733598 -0.25215501 3.2360001
-1.3579583 -0.25215501 3.2360001
-1.3284509 -0.24950567 3.2020001
-1.3144417 -0.24973942 3.2050002
-1.2870269 -0.24740177 3.1750002
-1.2594969 -0.24498619 3.1440001
-1.2429501 -0.2446745 3.1400001
-1.22605 -0.24428491 3.1350002
-1.2072661 -0.24350569 3.1250002
-1.1904851 -0.24311607 3.1200001
-1.1748821 -0.24296023 3.118
