# .PCD v0.7 - Point Cloud Data file format
VERSION 0.7
FIELDS x y z
SIZE 4 4 4
TYPE F F F
COUNT 1 1 1
WIDTH 1652
HEIGHT 1
VIEWPOINT 0 0 0 1 0 0 0
POINTS 1652
DATA ascii
1.1028144 -0.33452746 2.3930001
1.0951136 -0.32879588 2.352
1.1044263 -0.32823673 2.348
1.1137009 -0.32767755 2.3440001
1.1210179 -0.32655922 2.3360002
1.1316512 -0.32641938 2.335
1.1427644 -0.32641938 2.335
1.1583251 -0.32767755 2.3440001
1.1669866 -0.32697859 2.3390002
1.1801336 -0.32753778 2.3430002
1.1917933 -0.32767755 2.3440001
1.2029493 -0.32767755 2.3440001
1.2130694 -0.32739794 2.342
1.2231706 -0.32711837 2.3400002
1.2327251 -0.32669899 2.3370001
1.2395899 -0.32558063 2.329
1.2469157 -0.32460207 2.322
1.2557999 -0.32404289 2.3180001
1.2646463 -0.32348374 2.3140001
1.2734544 -0.32292455 2.3100002
1.2811123 -0.3220858 2.3040001
1.2903957 -0.32166639 2.3010001
1.2990849 -0.32110724 2.2970002
1.3054546 -0.31998888 2.289
1.3140486 -0.3194297 2.2850001
1.3226047 -0.31887051 2.2810001
1.3340453 -0.31901032 2.2820001
1.3407809 -0.31803176 2.2750001
1.3480439 -0.31719297 2.2690001
1.3516566 -0.31551546 2.2570002
1.3593804 -0.31481647 2.2520001
1.3451545 -0.30908495 2.2110002
1.3569038 -0.3093645 2.2130001
1.3458096 -0.30447173 2.1780002
1.3543077 -0.30405235 2.1750002
1.3634043 -0.30377275 2.1730001
1.3781719 -0.30475131 2.1800001
1.3872737 -0.30447173 2.1780002
1.3976395 -0.30447173 2.1780002
1.4125308 -0.30545029 2.1850002
1.4242326 -0.30572987 2.187
1.4346412 -0.30572987 2.187
1.4443895 -0.30559006 2.1860001
1.4547936 -0.30559006 2.1860001
1.4631867 -0.30517069 2.1830001
1.4729016 -0.30503091 2.1820002
1.4812473 -0.3046115 2.1790001
1.4888799 -0.30405235 2.1750002
1.4937172 -0.30293396 2.1670001
1.5033368 -0.30279419 2.1660001
1.4842951 -0.29692283 2.1240001
1.5028472 -0.29860038 2.1360002
1.4988465 -0.2958045 2.1160002
1.5039257 -0.29482594 2.1090002
1.5046312 -0.2930086 2.0960002
1.5073807 -0.29161066 2.0860002
1.512217 -0.29063207 2.079
1.5162549 -0.28951374 2.0710001
1.5246378 -0.28923413 2.069
1.5337435 -0.28909436 2.0680001
1.5428394 -0.28895459 2.0670002
1.5541794 -0.28923413 2.069
1.5662946 -0.28965354 2.072
1.5799595 -0.29035252 2.0770001
1.593672 -0.29105148 2.082
1.6097429 -0.29216984 2.0900002
1.6266648 -0.293428 2.0990002
1.6405535 -0.29412696 2.1040001
1.6521363 -0.29440656 2.1060002
1.6621596 -0.29440656 2.1060002
1.6713887 -0.29426673 2.105
1.6790111 -0.29384735 2.102
1.6833906 -0.29286879 2.095
1.6909367 -0.29244941 2.092
1.6984543 -0.29203001 2.089
1.7075789 -0.29189023 2.0880001
1.7175165 -0.29189023 2.0880001
1.7274543 -0.29189023 2.0880001
1.7382238 -0.29203001 2.089
1.7473295 -0.29189023 2.0880001
1.7581087 -0.29203001 2.089
1.7714367 -0.29258922 2.0930002
1.800974 -0.2958045 2.1160002
1.7956389 -0.29328817 2.098
1.8168124 -0.29510552 2.1110001
1.8259943 -0.29496571 2.1100001
1.8351666 -0.29482594 2.1090002
1.8452041 -0.29482594 2.1090002
1.8534822 -0.29454634 2.1070001
1.8617414 -0.29426673 2.105
1.8717599 -0.29426673 2.105
1.8782028 -0.29370755 2.1010001
1.8774177 -0.29203001 2.089
0 -0 0
0 -0 0
0 -0 0
0 -0 0
0 -0 0
0 -0 0
0 -0 0
0 -0 0
0 -0 0
0 -0 0
0 -0 0
0 -0 0
0 -0 0
0 -0 0
0 -0 0
0 -0 0
0 -0 0
0 -0 0
0 -0 0
-0 -0 0
-0 -0 0
-0 -0 0
-0 -0 0
-0 -0 0
-0 -0 0
-0 -0 0
-0 -0 0
-3.94996 -0.54094923 4.006
-3.9083252 -0.53784347 3.9830003
-3.8659325 -0.53460258 3.9590001
-3.8247402 -0.53149682 3.9360001
-3.7837667 -0.528391 3.9130001
-3.7651429 -0.528391 3.9130001
-3.7465196 -0.528391 3.9130001
-3.727896 -0.528391 3.9130001
-3.7092721 -0.528391 3.9130001
-3.7123418 -0.53149682 3.9360001
-3.6936088 -0.53149682 3.9360001
-3.6963499 -0.53460258 3.9590001
-3.6998012 -0.53784347 3.9830003
-3.6808443 -0.53784347 3.9830003
-3.7050982 -0.54419011 4.0300002
-3.6859181 -0.54419011 4.0300002
-3.6894841 -0.547566 4.0550003
-3.6919067 -0.55080676 4.079
-3.6950018 -0.55418265 4.1040001
-3.6978588 -0.55755854 4.1290002
-3.7476914 -0.56809127 4.2070003
-3.7746301 -0.57524806 4.2600002
-3.7781501 -0.57889402 4.2870002
-3.7814131 -0.58253998 4.3140001
-3.785291 -0.58632088 4.342
-3.7646255 -0.58632088 4.342
-3.7439601 -0.58632088 4.342
-3.6761322 -0.57889402 4.2870002
-3.6327043 -0.57524806 4.2600002
-3.5674858 -0.56809127 4.2070003
-3.5246959 -0.56444532 4.1800003
-3.4620395 -0.55755854 4.1290002
-3.421545 -0.55418265 4.1040001
-3.4020123 -0.55418265 4.1040001
-3.3824799 -0.55418265 4.1040001
-3.3834331 -0.55755854 4.1290002
-3.4053297 -0.56444532 4.1800003
-3.4073031 -0.56809127 4.2070003
-3.4299533 -0.57524806 4.2600002
-3.4312887 -0.57889402 4.2870002
-3.4108853 -0.57889402 4.2870002
-3.3904817 -0.57889402 4.2870002
-3.3700778 -0.57889402 4.2870002
-3.328578 -0.57524806 4.2600002
-3.2873347 -0.57160217 4.2330003
-0 -0 0
-0 -0 0
-0 -0 0
-0 -0 0
-0 -0 0
-0 -0 0
-0 -0 0
-1.742911 -0.31868204 2.3600001
-1.7294774 -0.31827694 2.3570001
-1.7153435 -0.3177368 2.3530002
-1.6997992 -0.3169266 2.3470001
-1.6871898 -0.3166565 2.345
-1.676029 -0.3166565 2.345
-1.6655782 -0.31679156 2.3460002
-1.6565282 -0.31719667 2.3490002
-1.6488506 -0.31787184 2.3540001
-1.6432126 -0.31895211 2.3620002
-1.6340435 -0.31935719 2.365
-1.6269044 -0.32016742 2.3710001
-1.6237969 -0.32178783 2.3830001
-1.6158383 -0.32246301 2.388
-1.6064885 -0.32286811 2.391
-1.5984446 -0.32354328 2.3960001
-1.5896904 -0.32408342 2.4000001
-1.581556 -0.32475862 2.4050002
-1.572721 -0.32529876 2.4090002
-1.5644959 -0.3259739 2.414
-1.5562234 -0.3266491 2.4190001
-1.545349 -0.3267841 2.4200001
-1.5382679 -0.32772934 2.427
-1.5311201 -0.32867458 2.434
-1.523906 -0.32961985 2.4410002
-1.5141467 -0.33002493 2.444
-1.5031295 -0.33015999 2.4450002
-1.4914929 -0.33015999 2.4450002
-1.4780402 -0.32975489 2.4420002
-1.4628147 -0.32894468 2.4360001
-1.4476464 -0.32813448 2.4300001
-1.4272164 -0.32610896 2.4150002
-1.4127911 -0.32543376 2.4100001
-1.3908548 -0.32300317 2.3920002
-1.3771634 -0.32246301 2.388
-1.3623663 -0.3216528 2.3820002
-1.3391185 -0.31881708 2.3610001
-1.3222573 -0.31746671 2.3510001
-1.3077219 -0.3166565 2.345
-1.2921379 -0.31557623 2.3370001
-1.2706004 -0.31301057 2.3180001
-1.2557644 -0.31206533 2.3110001
-1.2366859 -0.31003979 2.296
-1.2225553 -0.30922961 2.2900002
-1.2047777 -0.30747417 2.2770002
-1.1907945 -0.30666396 2.2710001
-1.1768683 -0.30585372 2.2650001
-1.163514 -0.30517855 2.26
-1.1507175 -0.30463842 2.256
-1.1379591 -0.30409828 2.2520001
-1.1247382 -0.30342314 2.2470002
-1.1155311 -0.30382821 2.25
-1.0896004 -0.29964215 2.2190001
-1.0785531 -0.29950711 2.2180002
-1.0675151 -0.29937205 2.217
-1.0564867 -0.29923701 2.2160001
-1.0459399 -0.29923701 2.2160001
-1.0358603 -0.29937205 2.217
-1.0262336 -0.29964215 2.2190001
-1.0161302 -0.29977715 2.22
-1.0019407 -0.29869691 2.2120001
-0.99903214 -0.30099249 2.2290001
-1.006161 -0.30639386 2.2690001
-0.99667794 -0.30679896 2.2720001
-0.9945429 -0.30949965 2.2920001
-0.98578018 -0.31017485 2.2970002
-0.97696978 -0.31085002 2.302
-0.96769214 -0.31139013 2.306
-0.95879138 -0.31206533 2.3110001
-0.95025319 -0.31287554 2.3170002
-0.94044167 -0.31328064 2.3200002
-0.9314028 -0.31395581 2.325
-0.92231649 -0.31463102 2.3300002
-0.91396457 -0.31557623 2.3370001
-0.90477341 -0.3162514 2.342
-0.89553481 -0.3169266 2.3470001
-0.88775569 -0.31814191 2.3560002
-0.87840271 -0.31881708 2.3610001
-0.86900216 -0.31949225 2.3660002
-0.85919154 -0.32003239 2.3700001
-0.84504962 -0.31895211 2.3620002
-0.83521986 -0.31949225 2.3660002
-0.82500392 -0.31989735 2.3690002
-0.82678145 -0.32502866 2.4070001
-0.81566429 -0.32516372 2.4080002
-0.80487156 -0.32543376 2.4100001
-0 -0 0
-0 -0 0
-0 -0 0
-0 -0 0
-0 -0 0
-0 -0 0
-0 -0 0
-0 -0 0
-0.37294635 -0.17297952 1.281
-0.3665632 -0.1728445 1.2800001
-0.35934466 -0.17230435 1.276
-0.35216424 -0.17176422 1.2720001
-0.34474978 -0.17108904 1.2670001
-0.33738288 -0.17041387 1.2620001
-0.33006361 -0.1697387 1.2570001
-0.32279193 -0.16906352 1.2520001
-0.31582087 -0.16852337 1.248
-0.30888796 -0.16798325 1.2440001
-0.30199304 -0.1674431 1.24
-0.29513624 -0.16690296 1.2360001
-0.28831753 -0.16636284 1.2320001
-0.28153688 -0.16582268 1.228
-0.27479431 -0.16528255 1.2240001
-0.2680898 -0.16474241 1.22
-0.26120839 -0.16406724 1.215
-0.25437456 -0.16339205 1.21
-0.24779379 -0.16285193 1.2060001
-0.24105042 -0.16217676 1.2010001
-0.23455055 -0.16163661 1.197
-0.22789758 -0.16096143 1.192
-0.22147867 -0.1604213 1.1880001
-0.21491612 -0.15974613 1.1830001
-0.20857808 -0.15920597 1.179
-0.20227815 -0.15866585 1.1750001
-0.19601627 -0.1581257 1.171
-0.18979245 -0.15758556 1.1670001
-0.18344888 -0.15691039 1.1620001
-0.17730598 -0.15637027 1.1580001
-0.17105278 -0.15569507 1.153
-0.16499081 -0.15515494 1.149
-0.15896693 -0.15461481 1.1450001
-0.15298107 -0.15407465 1.141
-0.14703332 -0.15353453 1.1370001
-0.14112364 -0.15299438 1.133
-0.13525204 -0.15245424 1.1290001
-0.12941851 -0.1519141 1.125
-0.12362305 -0.15137397 1.1210001
-0.11786568 -0.15083383 1.1170001
-0.11224714 -0.15042873 1.1140001
-0.10665714 -0.15002362 1.1110001
-0.10109571 -0.14961851 1.108
-0.095562831 -0.1492134 1.105
-0.090140238 -0.14894333 1.103
-0.08473669 -0.14867328 1.1010001
-0.079279959 -0.14826816 1.098
-0.073919237 -0.14799809 1.0960001
-0.06857755 -0.14772804 1.0940001
-0.0632549 -0.14745796 1.092
-0.05795129 -0.14718789 1.09
-0.05266672 -0.14691782 1.0880001
-0.047444832 -0.14678279 1.087
-0.042232465 -0.14664775 1.0860001
-0.037063744 -0.14664775 1.0860001
-0.031924389 -0.14678279 1.087
-0.02677552 -0.14691782 1.0880001
-0.021636982 -0.14718789 1.09
-0.016494496 -0.14759299 1.0930001
-0.011333785 -0.14813313 1.097
-0.0061405716 -0.1488083 1.102
-0.00090057688 -0.14961851 1.108
0.0043965308 -0.15042873 1.1140001
0.0097594578 -0.15137397 1.1210001
0.015189015 -0.15231921 1.128
0.020666981 -0.15312941 1.1340001
0.026225043 -0.15407465 1.141
0.031849738 -0.15501989 1.148
0.037541065 -0.15596515 1.1550001
0.043261759 -0.15677536 1.161
0.049039569 -0.15758556 1.1670001
0.054827709 -0.15826073 1.1720001
0.060611896 -0.15880087 1.176
0.066321574 -0.15907095 1.1780001
0.071989216 -0.15920597 1.179
0 -0 0
0 -0 0
0 -0 0
0 -0 0
0 -0 0
0 -0 0
0 -0 0
0 -0 0
0.2405152 -0.31260547 2.3150001
0.25098997 -0.3119303 2.3100002
0.2618708 -0.31179526 2.309
0.27262396 -0.3115252 2.3070002
0.28335804 -0.31125513 2.3050001
0.2939454 -0.31085002 2.302
0.3043718 -0.31030989 2.2980001
0.31476006 -0.30976975 2.2940001
0.32482633 -0.30895954 2.2880001
0.3332215 -0.30666396 2.2710001
0.34206074 -0.30490848 2.2580001
0.35093251 -0.30328807 2.2460001
0.35936809 -0.30139759 2.2320001
0.36700726 -0.29896694 2.214
0.37583932 -0.2976166 2.204
0.38317397 -0.29518598 2.1860001
0.39267781 -0.29451081 2.181
0.40176442 -0.29356557 2.174
0.41097406 -0.29275537 2.1680002
0.41934919 -0.29140499 2.158
0.42842552 -0.29059482 2.1520002
0.43764856 -0.28991961 2.1470001
0.44640684 -0.2889744 2.1400001
0.45552513 -0.2882992 2.135
0.46459588 -0.28762403 2.1300001
0.47384194 -0.28708392 2.1260002
0.48259458 -0.28627369 2.1200001
0.49175498 -0.28573355 2.1160002
0.5008772 -0.28519341 2.112
0.50971955 -0.28451824 2.1070001
0.51851422 -0.28384304 2.102
0.52751273 -0.28330293 2.098
0.5367294 -0.28289783 2.095
0.54591751 -0.2824927 2.092
0.55560845 -0.28235769 2.0910001
0.56528997 -0.28222266 2.0900002
0.57496184 -0.28208759 2.089
0.58518434 -0.28222266 2.0900002
0.59513152 -0.28222266 2.0900002
0.60536814 -0.28235769 2.0910001
0.61561435 -0.2824927 2.092
0.62587011 -0.28262776 2.0930002
0.63643909 -0.28289783 2.095
0.64733571 -0.28330293 2.098
0.6579476 -0.283573 2.1000001
0.66921461 -0.28411314 2.1040001
0.68859047 -0.28802916 2.1330001
0.7066043 -0.29126999 2.1570001
0.7291671 -0.29626626 2.194
0.74871123 -0.29991221 2.2210002
0.77740067 -0.30706906 2.2740002
0.80382156 -0.31314561 2.319
0.83277929 -0.32003239 2.3700001
0.85331881 -0.32354328 2.3960001
0.876993 -0.32813448 2.4300001
0.89221501 -0.32948482 2.4400001
0.91308856 -0.33286068 2.4650002
0.92819709 -0.33407602 2.4740002
0.94073176 -0.33434606 2.4760001
0.95251602 -0.33434606 2.4760001
0.96391088 -0.33421105 2.4750001
0.97450781 -0.33380592 2.4720001
0.98308128 -0.33272567 2.4640002
0.99319345 -0.33218551 2.46
0.99468929 -0.32880965 2.4350002
1.0021459 -0.32745931 2.4250002
1.0115974 -0.3267841 2.4200001
1.0205784 -0.3259739 2.414
1.0303575 -0.32543376 2.4100001
1.0400985 -0.32489365 2.4060001
1.0506755 -0.32462355 2.404
1.0607917 -0.32421845 2.401
1.071326 -0.32394841 2.3990002
1.0804871 -0.32327321 2.3940001
1.0877764 -0.32205793 2.3850002
1.1023536 -0.32300317 2.3920002
1.0951136 -0.31760174 2.352
1.1081892 -0.31814191 2.3560002
1.1175019 -0.31760174 2.352
1.1166989 -0.31422588 2.3270001
1.127774 -0.31422588 2.3270001
1.142275 -0.31517112 2.3340001
1.1494302 -0.31409088 2.3260002
1.163494 -0.31490105 2.332
1.1761041 -0.31530616 2.335
1.191285 -0.31638646 2.3430002
1.2024362 -0.31638646 2.3430002
1.2135875 -0.31638646 2.3430002
1.2236934 -0.31611636 2.3410001
1.2316701 -0.31530616 2.335
1.241719 -0.31503612 2.3330002
1.2479898 -0.31382078 2.3240001
1.2563417 -0.31314561 2.319
1.2651927 -0.31260547 2.3150001
1.2740057 -0.31206533 2.3110001
1.2811123 -0.31112009 2.3040001
1.289835 -0.31057996 2.3000002
1.2985193 -0.31003979 2.296
1.3037436 -0.30868945 2.286
1.3088729 -0.3073391 2.276
1.3168063 -0.30666396 2.2710001
1.3235227 -0.30571872 2.2640002
1.33253 -0.30531359 2.2610002
1.3409146 -0.30477348 2.2570002
1.34986 -0.30436838 2.2540002
1.3593804 -0.30409828 2.2520001
1.3445461 -0.29842681 2.21
1.3538381 -0.29815677 2.2080002
1.3476632 -0.29451081 2.181
1.3555529 -0.29397067 2.177
1.3646593 -0.29370061 2.1750002
1.378804 -0.29451081 2.181
1.3847257 -0.29356557 2.174
1.4021314 -0.29505098 2.1850002
1.4131773 -0.29518598 2.1860001
1.4235814 -0.29518598 2.1860001
1.4339854 -0.29518598 2.1860001
1.4437288 -0.29505098 2.1850002
1.4534625 -0.29491591 2.184
1.4625165 -0.29464585 2.1820002
1.4715515 -0.29437578 2.1800001
1.4798877 -0.29397067 2.177
1.4875107 -0.29343054 2.1730001
1.4930279 -0.2924853 2.1660001
1.5033368 -0.2924853 2.1660001
1.5024644 -0.29032475 2.1500001
1.5028472 -0.28843427 2.1360002
1.5002631 -0.28600362 2.118
1.5024995 -0.28451824 2.1070001
1.5046312 -0.28303286 2.0960002
1.5059354 -0.28141245 2.0840001
1.5114897 -0.28060222 2.0780001
1.5133264 -0.27911687 2.0670002
1.5224271 -0.2789818 2.066
1.5315185 -0.27884677 2.0650001
1.5406002 -0.27871177 2.0640001
1.5511748 -0.27884677 2.0650001
1.5640267 -0.27938691 2.069
1.5769168 -0.27992707 2.0730002
1.5906103 -0.28060222 2.0780001
1.6097429 -0.28222266 2.0900002
1.6266648 -0.28343797 2.0990002
1.6397737 -0.2839781 2.1030002
1.6521363 -0.28438321 2.1060002
1.6629487 -0.28451824 2.1070001
1.6713887 -0.28424817 2.105
1.6798099 -0.2839781 2.1030002
1.6841942 -0.28303286 2.0960002
1.6917452 -0.28262776 2.0930002
1.6992675 -0.28222266 2.0900002
1.7083966 -0.28208759 2.089
1.7175165 -0.28195259 2.0880001
1.7274543 -0.28195259 2.0880001
1.7382238 -0.28208759 2.089
1.7456559 -0.28168252 2.0860002
1.7572672 -0.28195259 2.0880001
1.7714367 -0.28262776 2.0930002
1.7984205 -0.28532845 2.1130002
1.8067654 -0.28505838 2.1110001
1.8176731 -0.28519341 2.112
1.8268596 -0.28505838 2.1110001
1.8351666 -0.28478834 2.1090002
1.844329 -0.28465328 2.108
1.8526027 -0.28438321 2.1060002
1.8608571 -0.28411314 2.1040001
1.8450841 -0.28019711 2.075
1.8487022 -0.27925187 2.0680001
1.8738228 -0.28154746 2.085
1.8819393 -0.28127742 2.0830002
0 -0 0
0 -0 0
0 -0 0
0 -0 0
0 -0 0
0 -0 0
0 -0 0
0 -0 0
0 -0 0
0 -0 0
0 -0 0
0 -0 0
0 -0 0
0 -0 0
0 -0 0
0 -0 0
0 -0 0
0 -0 0
-0 -0 0
-0 -0 0
-0 -0 0
-0 -0 0
-0 -0 0
-0 -0 0
-0 -0 0
-3.9928048 -0.52500963 4.0300002
-3.94996 -0.52188301 4.006
-3.9083252 -0.51888669 3.9830003
-3.8659325 -0.51576006 3.9590001
-3.8247402 -0.51276374 3.9360001
-3.7837667 -0.50976741 3.9130001
-3.7651429 -0.50976741 3.9130001
-3.7465196 -0.50976741 3.9130001
-3.727896 -0.50976741 3.9130001
-3.7310748 -0.51276374 3.9360001
-3.734035 -0.51576006 3.9590001
-3.7151923 -0.51576006 3.9590001
-3.7187576 -0.51888669 3.9830003
-3.7211657 -0.52188301 4.006
-3.7242787 -0.52500963 4.0300002
-3.7280829 -0.52826655 4.0550003
-3.7087836 -0.52826655 4.0550003
-3.6894841 -0.52826655 4.0550003
-3.6701846 -0.52826655 4.0550003
-3.6724932 -0.53139311 4.079
-3.6978588 -0.53790689 4.1290002
-3.7013686 -0.54129404 4.1550002
-3.7276688 -0.5480684 4.2070003
-3.7305596 -0.55145556 4.2330003
-3.7577462 -0.5584904 4.2870002
-3.7373428 -0.5584904 4.2870002
-3.7169392 -0.5584904 4.2870002
-3.6732545 -0.55497295 4.2600002
-3.6298268 -0.55145556 4.2330003
-3.5875087 -0.5480684 4.2070003
-3.5233903 -0.54129404 4.1550002
-3.4816911 -0.53790689 4.1290002
-3.4410777 -0.53465003 4.1040001
-3.4007022 -0.53139311 4.079
-3.3812885 -0.53139311 4.079
-3.3618751 -0.53139311 4.079
-3.3629472 -0.53465003 4.1040001
-3.3637812 -0.53790689 4.1290002
-3.3854356 -0.54455096 4.1800003
-3.3872802 -0.5480684 4.2070003
-3.4096782 -0.55497295 4.2600002
-3.4108853 -0.5584904 4.2870002
-3.4118352 -0.56200784 4.3140001
-3.3913031 -0.56200784 4.3140001
-3.3707712 -0.56200784 4.3140001
-3.3292708 -0.5584904 4.2870002
-0 -0 0
-0 -0 0
-0 -0 0
-0 -0 0
-0 -0 0
-0 -0 0
-0 -0 0
-1.7436495 -0.30758008 2.3610001
-1.7302111 -0.30718926 2.358
-1.7146144 -0.3064076 2.352
-1.6997992 -0.30575624 2.3470001
-1.6871898 -0.30549568 2.345
-1.6767437 -0.30562598 2.3460002
-1.6662883 -0.30575624 2.3470001
-1.6565282 -0.3060168 2.3490002
-1.6488506 -0.30666816 2.3540001
-1.6411254 -0.30731955 2.3590002
-1.6347345 -0.30823147 2.3660002
-1.6275907 -0.30901313 2.3720002
-1.6244782 -0.31057641 2.3840001
-1.6158383 -0.3110975 2.388
-1.6071604 -0.31161863 2.3920002
-1.5991117 -0.31226999 2.3970001
-1.5910152 -0.31292138 2.4020002
-1.5822135 -0.31344247 2.4060001
-1.5740266 -0.31409386 2.411
-1.5651441 -0.31461498 2.4150002
-1.5568666 -0.31526634 2.4200001
-1.5472647 -0.31565717 2.4230001
-1.5401694 -0.31656909 2.4300001
-1.5330073 -0.31748101 2.437
-1.5251545 -0.31826267 2.4430001
-1.5153857 -0.31865349 2.4460001
-1.504359 -0.31878376 2.447
-1.4921029 -0.31865349 2.4460001
-1.4786454 -0.31826267 2.4430001
-1.4634151 -0.31748101 2.437
-1.4482422 -0.31669939 2.4310002
-1.4260343 -0.31435442 2.4130001
-1.4116188 -0.31370306 2.4080002
-1.3920177 -0.31187916 2.3940001
-1.3794703 -0.31161863 2.3920002
-1.3646541 -0.31083697 2.3860002
-1.3430887 -0.308492 2.368
-1.3278816 -0.30758008 2.3610001
-1.3066067 -0.30523515 2.3430002
-1.2926908 -0.30458376 2.3380001
-1.2711486 -0.30210853 2.319
-1.2530473 -0.30041492 2.306
-1.2361473 -0.2989819 2.2950001
-1.2230891 -0.29846081 2.2910001
-1.2042485 -0.29650667 2.276
-1.1897457 -0.29559475 2.2690001
-1.1758292 -0.2948131 2.263
-1.1655735 -0.29494339 2.2640002
-1.1527578 -0.29442227 2.26
-1.1374538 -0.29324982 2.2510002
-1.1257392 -0.29298925 2.2490001
-1.1150353 -0.29298925 2.2490001
-1.0896004 -0.28908098 2.2190001
-1.0785531 -0.28895071 2.2180002
-1.0679967 -0.28895071 2.2180002
-1.0574403 -0.28895071 2.2180002
-1.0468839 -0.28895071 2.2180002
-1.037262 -0.28921124 2.22
-1.027621 -0.28947181 2.2220001
-1.0170456 -0.28947181 2.2220001
-1.0023936 -0.28829932 2.2130001
-1.0174084 -0.29572505 2.2700002
-1.0070479 -0.29585531 2.2710001
-0.99799395 -0.29637641 2.2750001
-0.99280721 -0.29806998 2.2880001
-0.98449272 -0.29885164 2.2940001
-0.97612107 -0.29963329 2.3000002
-0.9668529 -0.30015439 2.3040001
-0.95796162 -0.30080575 2.309
-0.94943291 -0.3015874 2.3150001
-0.94044167 -0.30223882 2.3200002
-0.9314028 -0.30289018 2.325
-0.92231649 -0.30354157 2.3300002
-0.91435564 -0.30458376 2.3380001
-0.90515983 -0.30523515 2.3430002
-0.89591634 -0.30588651 2.348
-0.88850927 -0.30718926 2.358
-0.87914687 -0.30784065 2.3630002
-0.86936945 -0.30836174 2.3670001
-0.86317933 -0.31018558 2.381
-0.85542488 -0.31148833 2.391
-0.84616315 -0.31226999 2.3970001
-0.83788913 -0.31344247 2.4060001
-0.82712501 -0.31370306 2.4080002
-0.8163417 -0.31396359 2.4100001
-0.80587345 -0.31435442 2.4130001
-0.79537672 -0.31474525 2.4160001
-0 -0 0
-0 -0 0
-0 -0 0
-0 -0 0
-0 -0 0
-0 -0 0
-0 -0 0
-0.37352866 -0.16714327 1.2830001
-0.3665632 -0.16675244 1.2800001
-0.35962629 -0.16636162 1.2770001
-0.35216424 -0.16571024 1.2720001
-0.34474978 -0.16505887 1.2670001
-0.33738288 -0.16440749 1.2620001
-0.33006361 -0.16375612 1.2570001
-0.32279193 -0.16310474 1.2520001
-0.31582087 -0.16258362 1.248
-0.30888796 -0.16206253 1.2440001
-0.30199304 -0.16154142 1.24
-0.29513624 -0.16102032 1.2360001
-0.28831753 -0.16049923 1.2320001
-0.28153688 -0.15997812 1.228
-0.27479431 -0.15945703 1.2240001
-0.2680898 -0.15893592 1.22
-0.26120839 -0.15828454 1.215
-0.25437456 -0.15763317 1.21
-0.24779379 -0.15711208 1.2060001
-0.24105042 -0.15646069 1.2010001
-0.23455055 -0.15593958 1.197
-0.22789758 -0.1552882 1.192
-0.22147867 -0.15476711 1.1880001
-0.21491612 -0.15411574 1.1830001
-0.20857808 -0.15359463 1.179
-0.20227815 -0.15307353 1.1750001
-0.19601627 -0.15255243 1.171
-0.18962982 -0.15190105 1.166
-0.18344888 -0.15137996 1.1620001
-0.17730598 -0.15085886 1.1580001
-0.17105278 -0.15020746 1.153
-0.16499081 -0.14968637 1.149
-0.15896693 -0.14916527 1.1450001
-0.15298107 -0.14864416 1.141
-0.14703332 -0.14812307 1.1370001
-0.14112364 -0.14760196 1.133
-0.13525204 -0.14708087 1.1290001
-0.12941851 -0.14655976 1.125
-0.12362305 -0.14603867 1.1210001
-0.11786568 -0.14551757 1.1170001
-0.11224714 -0.14512675 1.1140001
-0.10665714 -0.1447359 1.1110001
-0.10109571 -0.14434507 1.108
-0.095649317 -0.14408453 1.1060001
-0.090140238 -0.1436937 1.103
-0.08473669 -0.14343315 1.1010001
-0.079352163 -0.14317261 1.0990001
-0.073986679 -0.14291205 1.097
-0.068640232 -0.1426515 1.095
-0.0632549 -0.14226067 1.092
-0.05795129 -0.14200012 1.09
-0.05266672 -0.14173958 1.0880001
-0.047444832 -0.1416093 1.087
-0.042232465 -0.14147903 1.0860001
-0.037063744 -0.14147903 1.0860001
-0.031924389 -0.1416093 1.087
-0.02677552 -0.14173958 1.0880001
-0.021636982 -0.14200012 1.09
-0.016509587 -0.14252123 1.0940001
-0.011333785 -0.14291205 1.097
-0.0061405716 -0.14356342 1.102
-0.00090057688 -0.14434507 1.108
0.0044004773 -0.14525701 1.115
0.0097594578 -0.14603867 1.1210001
0.015189015 -0.14695059 1.128
0.020666981 -0.14773224 1.1340001
0.026225043 -0.14864416 1.141
0.031849738 -0.14955609 1.148
0.037541065 -0.15046802 1.1550001
0.043261759 -0.15124968 1.161
0.049039569 -0.15203133 1.1670001
0.054827709 -0.15268271 1.1720001
0.060611896 -0.1532038 1.176
0.066321574 -0.15346436 1.1780001
0.071989216 -0.15359463 1.179
0 -0 0
0 -0 0
0 -0 0
0 -0 0
0 -0 0
0 -0 0
0 -0 0
0.22979459 -0.30197826 2.3180001
0.24009964 -0.30106631 2.3110001
0.25055534 -0.30041492 2.306
0.26153055 -0.30041492 2.306
0.27215126 -0.30002412 2.3030002
0.28298923 -0.29989383 2.302
0.29356232 -0.299503 2.299
0.30410686 -0.29911217 2.296
0.31448564 -0.29859108 2.2920001
0.32468438 -0.29793972 2.2870002
0.33292803 -0.29559475 2.2690001
0.34206074 -0.29416174 2.2580001
0.35077628 -0.29246816 2.2450001
0.35952908 -0.29090485 2.233
0.36667573 -0.28816906 2.2120001
0.37549829 -0.28686631 2.2020001
0.38282338 -0.28452134 2.184
0.39231774 -0.28386998 2.1790001
0.40121001 -0.28282776 2.171
0.40983668 -0.28165531 2.1620002
0.41915488 -0.28100392 2.1570001
0.42842552 -0.28035256 2.1520002
0.43744475 -0.27957091 2.1460001
0.44619825 -0.27865899 2.1390002
0.45531178 -0.27800757 2.1340001
0.46459588 -0.27748647 2.1300001
0.47384194 -0.27696538 2.1260002
0.48282221 -0.27631399 2.1210001
0.49198735 -0.2757929 2.1170001
0.5008772 -0.27514151 2.112
0.50971955 -0.27449015 2.1070001
0.51876092 -0.27396905 2.1030002
0.52751273 -0.27331766 2.098
0.53698564 -0.27305713 2.0960002
0.54591751 -0.27253601 2.092
0.55534279 -0.27227548 2.0900002
0.56501949 -0.27214518 2.089
0.57496184 -0.27214518 2.089
0.58490431 -0.27214518 2.089
0.59484673 -0.27214518 2.089
0.60536814 -0.27240574 2.0910001
0.61561435 -0.27253601 2.092
0.62587011 -0.27266631 2.0930002
0.63643909 -0.27292684 2.095
0.64733571 -0.27331766 2.098
0.6579476 -0.27357823 2.1000001
0.66953266 -0.27422959 2.105
0.68891323 -0.27800757 2.1340001
0.7082423 -0.28165531 2.1620002
0.73016417 -0.28621492 2.197
0.75848722 -0.29311952 2.25
0.78321236 -0.29846081 2.2910001
0.8086744 -0.3039324 2.3330002
0.83488762 -0.30953422 2.3760002
0.8583048 -0.31396359 2.4100001
0.880602 -0.31787184 2.4400001
0.89623737 -0.31930488 2.4510002
0.91308856 -0.32112873 2.4650002
0.92707157 -0.32191038 2.4710002
0.93921202 -0.32204065 2.4720001
0.95136195 -0.32217091 2.473
0.96391088 -0.32243147 2.4750001
0.97411364 -0.32191038 2.4710002
0.98188436 -0.32060763 2.4610002
0.99440461 -0.32086816 2.4630001
0.9942807 -0.31709018 2.434
1.0021459 -0.31591773 2.4250002
1.0111793 -0.31513608 2.4190001
1.019733 -0.31422415 2.4120002
1.02993 -0.31383333 2.4090002
1.0396663 -0.3133122 2.4050002
1.0502385 -0.31305164 2.4030001
1.0603499 -0.31266081 2.4000001
1.0704329 -0.31226999 2.3970001
1.0804871 -0.31187916 2.3940001
1.0868641 -0.31044614 2.3830001
1.0866846 -0.30718926 2.358
1.0993041 -0.30758008 2.3610001
1.0945486 -0.30315074 2.3270001
1.1041983 -0.30275992 2.3240001
1.1147794 -0.30262965 2.3230002
1.1258354 -0.30262965 2.3230002
1.1368916 -0.30262965 2.3230002
1.1484418 -0.30275992 2.3240001
1.1619972 -0.30341128 2.329
1.174593 -0.3038021 2.332
1.1907765 -0.30510485 2.342
1.2024362 -0.30523515 2.3430002
1.2141055 -0.30536541 2.3440001
1.2247388 -0.30523515 2.3430002
1.2327251 -0.30445349 2.3370001
1.243848 -0.30445349 2.3370001
1.2581928 -0.30523515 2.3430002
1.2682604 -0.30497459 2.3410001
1.2777627 -0.30458376 2.3380001
1.2712493 -0.30041492 2.306
1.2816683 -0.30028465 2.3050001
1.2903957 -0.29976356 2.3010001
1.2990849 -0.29924247 2.2970002
1.3031734 -0.29767916 2.2850001
1.3065727 -0.29598558 2.2720001
1.3150668 -0.29546449 2.2680001
1.315923 -0.29324982 2.2510002
1.3231003 -0.29246816 2.2450001
1.3302205 -0.29168651 2.2390001
1.3378824 -0.29103515 2.2340002
1.3406678 -0.28934154 2.2210002
1.3469796 -0.28842959 2.214
1.3532249 -0.28751767 2.207
1.350135 -0.28465164 2.1850002
1.3574209 -0.28400025 2.1800001
1.3665415 -0.28373972 2.1780002
1.3756431 -0.28347915 2.1760001
1.3930061 -0.28491217 2.187
1.4027731 -0.2847819 2.1860001
1.4131773 -0.2847819 2.1860001
1.4229302 -0.28465164 2.1850002
1.4326733 -0.28452134 2.184
1.4417465 -0.28426081 2.1820002
1.451466 -0.28413051 2.181
1.4598355 -0.28373972 2.1780002
1.4688514 -0.28347915 2.1760001
1.4771687 -0.28308833 2.1730001
1.4854571 -0.2826975 2.1700001
1.4923387 -0.28204614 2.1650002
1.5026428 -0.28204614 2.1650002
1.5024644 -0.280092 2.1500001
1.4944042 -0.27670482 2.1240001
1.5016799 -0.27618372 2.1200001
1.5003601 -0.27409932 2.1040001
1.5046312 -0.27305713 2.0960002
1.5030451 -0.27097273 2.0800002
1.4991243 -0.2684975 2.0610001
1.5067371 -0.26810667 2.0580001
1.5202166 -0.26875806 2.0630002
1.5233604 -0.26758558 2.0540001
1.5353754 -0.2679764 2.0570002
1.5466677 -0.26823694 2.059
1.5587353 -0.26862776 2.062
1.5723525 -0.26927915 2.0670002
1.5890794 -0.27045164 2.0760002
1.6058918 -0.27162409 2.085
1.6258897 -0.27331766 2.098
1.6397737 -0.27396905 2.1030002
1.6521363 -0.27435988 2.1060002
1.6629487 -0.27449015 2.1070001
1.6713887 -0.27422959 2.105
1.6798099 -0.27396905 2.1030002
1.6858011 -0.27331766 2.098
1.6933616 -0.27292684 2.095
1.7008934 -0.27253601 2.092
1.7092146 -0.27227548 2.0900002
1.7183391 -0.27214518 2.089
1.7274543 -0.27201492 2.0880001
1.7348956 -0.27162409 2.085
1.7448189 -0.27162409 2.085
1.7564256 -0.27188465 2.0870001
1.7697439 -0.27240574 2.0910001
1.7950162 -0.27475071 2.1090002
1.8059096 -0.27488098 2.1100001
1.8168124 -0.27501124 2.1110001
1.8259943 -0.27488098 2.1100001
1.8342962 -0.27462041 2.108
1.8434541 -0.27449015 2.1070001
1.8517228 -0.27422959 2.105
1.8334396 -0.27006081 2.0730002
1.8415273 -0.26980025 2.0710001
1.8558539 -0.27045164 2.0760002
1.8702281 -0.27110299 2.0810001
1.8783252 -0.27084243 2.079
0 -0 0
0 -0 0
0 -0 0
0 -0 0
0 -0 0
0 -0 0
0 -0 0
0 -0 0
0 -0 0
0 -0 0
0 -0 0
0 -0 0
0 -0 0
0 -0 0
0 -0 0
0 -0 0
0 -0 0
0 -0 0
-0 -0 0
-0 -0 0
-0 -0 0
-0 -0 0
-0 -0 0
-0 -0 0
-0 -0 0
-4.0175738 -0.50896716 4.0550003
-3.94996 -0.50281686 4.006
-3.9083252 -0.49993002 3.9830003
-3.8659325 -0.49691761 3.9590001
-3.8247402 -0.49403074 3.9360001
-3.7837667 -0.49114388 3.9130001
-3.7651429 -0.49114388 3.9130001
-3.7465196 -0.49114388 3.9130001
-3.7498078 -0.49403074 3.9360001
-3.7528772 -0.49691761 3.9590001
-3.734035 -0.49691761 3.9590001
-3.7377145 -0.49993002 3.9830003
-3.7402315 -0.50281686 4.006
-3.7434592 -0.50582927 4.0300002
-3.7473824 -0.50896716 4.0550003
-3.7280829 -0.50896716 4.0550003
-3.7087836 -0.50896716 4.0550003
-3.7113204 -0.51197952 4.079
-3.6919067 -0.51197952 4.079
-3.6724932 -0.51197952 4.079
-3.6754692 -0.51511741 4.1040001
-3.6782072 -0.51825535 4.1290002
-3.7037451 -0.52465665 4.1800003
-3.7076457 -0.52804559 4.2070003
-3.6876228 -0.52804559 4.2070003
-3.6676002 -0.52804559 4.2070003
-3.6475773 -0.52804559 4.2070003
-3.6275544 -0.52804559 4.2070003
-3.5629413 -0.52151877 4.1550002
-3.5209944 -0.51825535 4.1290002
-3.4801428 -0.51511741 4.1040001
-3.4192924 -0.50896716 4.0550003
-3.3999929 -0.50896716 4.0550003
-3.3806934 -0.50896716 4.0550003
-3.3812885 -0.51197952 4.079
-3.3824799 -0.51511741 4.1040001
-3.3629472 -0.51511741 4.1040001
-3.3849628 -0.52151877 4.1550002
-3.3854356 -0.52465665 4.1800003
-3.4082141 -0.53130901 4.2330003
-3.4096782 -0.53469795 4.2600002
-3.4108853 -0.53808683 4.2870002
-3.4339795 -0.54499018 4.342
-3.4133141 -0.54499018 4.342
-3.3926489 -0.54499018 4.342
-3.3719835 -0.54499018 4.342
-0 -0 0
-0 -0 0
-0 -0 0
-0 -0 0
-0 -0 0
-0 -0 0
-0 -0 0
-1.742911 -0.29621762 2.3600001
-1.7294774 -0.29584107 2.3570001
-1.7153435 -0.29533902 2.3530002
-1.7005234 -0.29471144 2.348
-1.6871898 -0.29433489 2.345
-1.6767437 -0.29446042 2.3460002
-1.6662883 -0.29458591 2.3470001
-1.6565282 -0.29483697 2.3490002
-1.6481501 -0.29533902 2.3530002
-1.6411254 -0.29609212 2.3590002
-1.6340435 -0.2968452 2.365
-1.6275907 -0.29772383 2.3720002
-1.6237969 -0.29910448 2.3830001
-1.6151618 -0.29960656 2.3870001
-1.6071604 -0.30023414 2.3920002
-1.5991117 -0.30086172 2.3970001
-1.5910152 -0.30148929 2.4020002
-1.5822135 -0.30199137 2.4060001
-1.5746796 -0.30274448 2.4120002
-1.5657922 -0.30324653 2.4160001
-1.55751 -0.30387408 2.421
-1.5491805 -0.30450168 2.4260001
-1.5427046 -0.30550578 2.434
-1.5355237 -0.30638444 2.4410002
-1.5270274 -0.30701199 2.4460001
-1.5172445 -0.30738854 2.4490001
-1.5055885 -0.30738854 2.4490001
-1.4933228 -0.30726305 2.4480002
-1.479856 -0.30688649 2.4450002
-1.4634151 -0.30588233 2.437
-1.4541997 -0.30638444 2.4410002
-1.4266253 -0.30299547 2.414
-1.4116188 -0.3022424 2.4080002
-1.3960879 -0.30136377 2.401
-1.3812004 -0.30061069 2.3950002
-1.3652259 -0.29960656 2.3870001
-1.3442231 -0.29747277 2.3700001
-1.3295689 -0.2967197 2.3640001
-1.3066067 -0.29408386 2.3430002
-1.2932438 -0.29358181 2.3390002
-1.2711486 -0.29107147 2.319
-1.2535908 -0.28956529 2.3070002
-1.2366859 -0.28818458 2.296
-1.2236229 -0.28768253 2.2920001
-1.2042485 -0.28567427 2.276
-1.1886971 -0.28454465 2.2670002
-1.17479 -0.28379154 2.2610002
-1.1645437 -0.28391707 2.2620001
-1.140516 -0.28065366 2.2360001
-1.1313901 -0.28103021 2.2390001
-1.113726 -0.27927297 2.2250001
-1.0976826 -0.27789229 2.214
-1.0851811 -0.27739024 2.21
-1.0741765 -0.27726471 2.2090001
-1.0679967 -0.27839437 2.2180002
-1.057917 -0.27851987 2.2190001
-1.0478278 -0.2786454 2.22
-1.0381964 -0.27889642 2.2220001
-1.028546 -0.27914748 2.2240002
-1.0175034 -0.27902195 2.223
-1.0254945 -0.28416809 2.2640002
-1.01696 -0.28479567 2.2690001
-1.0074912 -0.28517222 2.2720001
-0.99887139 -0.2857998 2.2770002
-0.99193937 -0.28692943 2.286
-0.98363435 -0.28768253 2.2920001
-0.97527218 -0.28843564 2.2980001
-0.96601355 -0.28893769 2.302
-0.95713186 -0.28956529 2.3070002
-0.94861269 -0.2903184 2.3130002
-0.93963093 -0.29094595 2.3180001
-0.93060166 -0.29157355 2.3230002
-0.92152476 -0.2922011 2.3280001
-0.91435564 -0.29345626 2.3380001
-0.90554613 -0.29420936 2.3440001
-0.89629793 -0.29483697 2.3490002
-0.88888609 -0.29609212 2.3590002
-0.87989092 -0.2968452 2.365
-0.8704713 -0.29747277 2.3700001
-0.8635419 -0.29897898 2.3820002
-0.85578269 -0.30023414 2.3920002
-0.84722215 -0.30123827 2.4000001
-0.83788913 -0.30199137 2.4060001
-0.82712501 -0.3022424 2.4080002
-0.81668043 -0.30261892 2.411
-0.80620742 -0.30299547 2.414
-0.79636431 -0.30362308 2.4190001
-0 -0 0
-0 -0 0
-0 -0 0
-0 -0 0
-0 -0 0
-0 -0 0
-0 -0 0
-0.37352866 -0.16103697 1.2830001
-0.3665632 -0.16066042 1.2800001
-0.35962629 -0.16028386 1.2770001
-0.35244107 -0.15978178 1.273
-0.34502187 -0.15915421 1.268
-0.33765021 -0.15852663 1.263
-0.33032617 -0.15789905 1.258
-0.32304975 -0.15727147 1.253
-0.31607395 -0.15676941 1.2490001
-0.30913624 -0.15626734 1.245
-0.30223659 -0.15576528 1.2410001
-0.29537505 -0.15526323 1.2370001
-0.28855154 -0.15476115 1.233
-0.28176615 -0.1542591 1.2290001
-0.27501878 -0.15375702 1.225
-0.2680898 -0.15312944 1.22
-0.26120839 -0.15250187 1.215
-0.25437456 -0.15187429 1.21
-0.24779379 -0.15137224 1.2060001
-0.24105042 -0.15074465 1.2010001
-0.23455055 -0.15024258 1.197
-0.22789758 -0.149615 1.192
-0.22147867 -0.14911294 1.1880001
-0.21491612 -0.14848536 1.1830001
-0.20857808 -0.1479833 1.179
-0.20227815 -0.14748123 1.1750001
-0.19601627 -0.14697917 1.171
-0.18962982 -0.14635159 1.166
-0.18344888 -0.14584953 1.1620001
-0.17715286 -0.14522195 1.1570001
-0.17105278 -0.14471987 1.153
-0.16499081 -0.14421782 1.149
-0.15896693 -0.14371575 1.1450001
-0.15298107 -0.14321369 1.141
-0.14703332 -0.14271162 1.1370001
-0.14112364 -0.14220956 1.133
-0.13525204 -0.14170749 1.1290001
-0.12941851 -0.14120543 1.125
-0.12362305 -0.14070338 1.1210001
-0.11786568 -0.14020132 1.1170001
-0.11224714 -0.13982476 1.1140001
-0.10665714 -0.13944821 1.1110001
-0.10118695 -0.13919719 1.1090001
-0.095649317 -0.13882063 1.1060001
-0.090221964 -0.13856961 1.1040001
-0.08473669 -0.13819306 1.1010001
-0.079352163 -0.13794203 1.0990001
-0.073986679 -0.13769099 1.097
-0.068640232 -0.13743995 1.095
-0.0632549 -0.1370634 1.092
-0.05795129 -0.13681237 1.09
-0.05266672 -0.13656135 1.0880001
-0.047444832 -0.13643582 1.087
-0.042232465 -0.13631032 1.0860001
-0.037063744 -0.13631032 1.0860001
-0.031924389 -0.13643582 1.087
-0.026800131 -0.13668688 1.0890001
-0.021656832 -0.1369379 1.0910001
-0.016509587 -0.13731445 1.0940001
-0.011344117 -0.1378165 1.098
-0.0061461437 -0.13844408 1.103
-0.00090057688 -0.13907166 1.108
0.0044004773 -0.13995028 1.115
0.0097594578 -0.14070338 1.1210001
0.015189015 -0.14158198 1.128
0.020666981 -0.14233509 1.1340001
0.026225043 -0.14321369 1.141
0.031849738 -0.14409229 1.148
0.037541065 -0.14497092 1.1550001
0.043261759 -0.145724 1.161
0.049039569 -0.1464771 1.1670001
0.054827709 -0.14710468 1.1720001
0.060611896 -0.14760675 1.176
0.066377871 -0.1479833 1.179
0.072050273 -0.14810881 1.1800001
0 -0 0
0 -0 0
0 -0 0
0 -0 0
0 -0 0
0 -0 0
0 -0 0
0.22711796 -0.28755704 2.2910001
0.23968406 -0.28956529 2.3070002
0.25022942 -0.28906325 2.3030002
0.26119035 -0.28906325 2.3030002
0.2719149 -0.28881219 2.3010001
0.28262043 -0.28856114 2.299
0.29330698 -0.28831014 2.2970002
0.30370957 -0.28780806 2.2930002
0.31421122 -0.28743151 2.2900002
0.32425848 -0.28667843 2.2840002
0.33278131 -0.28467017 2.2680001
0.34190926 -0.28328949 2.2570002
0.35062006 -0.28165779 2.2440002
0.36017311 -0.28077915 2.237
0.36650997 -0.27751577 2.2110002
0.37549829 -0.27638611 2.2020001
0.38282338 -0.2741268 2.184
0.39195764 -0.2732482 2.177
0.40084043 -0.2722441 2.1690001
0.40964708 -0.27123994 2.161
0.41896057 -0.27061239 2.1560001
0.42822641 -0.26998478 2.151
0.43744475 -0.26935723 2.1460001
0.44598961 -0.26835307 2.138
0.45531178 -0.26785102 2.1340001
0.46459588 -0.26734897 2.1300001
0.47384194 -0.2668469 2.1260002
0.4830499 -0.26634485 2.1220002
0.49221975 -0.26584277 2.118
0.50111443 -0.26521519 2.1130002
0.50996143 -0.26458761 2.108
0.51900756 -0.26408553 2.1040001
0.5277642 -0.26345798 2.0990002
0.53698564 -0.26308143 2.0960002
0.54591751 -0.26257935 2.092
0.55534279 -0.26232833 2.0900002
0.564749 -0.26207727 2.0880001
0.57441145 -0.26195177 2.0870001
0.58434439 -0.26195177 2.0870001
0.59484673 -0.2622028 2.089
0.60507864 -0.26232833 2.0900002
0.61532009 -0.26245382 2.0910001
0.62587011 -0.26270488 2.0930002
0.63643909 -0.2629559 2.095
0.64733571 -0.26333246 2.098
0.6579476 -0.26358348 2.1000001
0.67080498 -0.26471314 2.1090002
0.68859047 -0.2677255 2.1330001
0.70922506 -0.27174202 2.1650002
0.73149359 -0.27626061 2.2010002
0.75916147 -0.28266191 2.2520001
0.78389609 -0.28780806 2.2930002
0.81179392 -0.29395834 2.342
0.83523899 -0.29835141 2.3770001
0.85866094 -0.30261892 2.411
0.88168472 -0.30663544 2.4430001
0.89404339 -0.30688649 2.4450002
0.91679275 -0.31065196 2.4750001
0.9266963 -0.31002438 2.47
0.93921202 -0.31027541 2.4720001
0.95136195 -0.31040093 2.473
0.96235305 -0.31014991 2.4710002
0.97371936 -0.31002438 2.47
0.98228329 -0.30902025 2.4620001
0.99440461 -0.30914575 2.4630001
0.9942807 -0.30550578 2.434
1.0017326 -0.30425063 2.424
1.0111793 -0.30362308 2.4190001
1.0188874 -0.30249342 2.4100001
1.0290749 -0.30211687 2.4070001
1.0388017 -0.30161482 2.4030001
1.0493644 -0.30136377 2.401
1.0594662 -0.30098721 2.398
1.0699863 -0.30073622 2.3960001
1.0795845 -0.30023414 2.3920002
1.0868641 -0.29910448 2.3830001
1.088528 -0.29646868 2.3620002
1.0848702 -0.29245216 2.3300002
1.0945486 -0.2920756 2.3270001
1.1041983 -0.29169905 2.3240001
1.1147794 -0.29157355 2.3230002
1.1253507 -0.291448 2.322
1.1368916 -0.29157355 2.3230002
1.1479477 -0.29157355 2.3230002
1.1614983 -0.2922011 2.3280001
1.1740893 -0.29257765 2.3310001
1.190268 -0.29383281 2.3410001
1.2024362 -0.29408386 2.3430002
1.2141055 -0.29420936 2.3440001
1.2247388 -0.29408386 2.3430002
1.2337801 -0.29358181 2.3390002
1.2443801 -0.29345626 2.3380001
1.2592667 -0.29433489 2.345
1.269344 -0.29408386 2.3430002
1.2794023 -0.29383281 2.3410001
1.2888902 -0.29345626 2.3380001
1.2811123 -0.28918874 2.3040001
1.2909565 -0.28893769 2.302
1.300216 -0.28856114 2.299
1.3031734 -0.28680393 2.2850001
1.3002468 -0.28379154 2.2610002
1.3081087 -0.28316396 2.256
1.315923 -0.28253639 2.2510002
1.3236896 -0.28190881 2.2460001
1.3320029 -0.28140676 2.2420001
1.3408767 -0.28103021 2.2390001
1.3424788 -0.27914748 2.2240002
1.3475881 -0.27801782 2.2150002
1.3526117 -0.27688816 2.2060001
1.3519887 -0.27462891 2.1880002
1.3592889 -0.2740013 2.1830001
1.3753256 -0.27513096 2.1920002
1.3838617 -0.27475441 2.1890001
1.3936431 -0.27462891 2.1880002
1.4034148 -0.27450335 2.187
1.4131773 -0.27437785 2.1860001
1.4222789 -0.2741268 2.184
1.4313614 -0.2738758 2.1820002
1.4404249 -0.27362475 2.1800001
1.4494696 -0.27337375 2.1780002
1.4571544 -0.27287164 2.174
1.4627762 -0.27199304 2.1670001
1.4710505 -0.27161649 2.164
1.4772426 -0.27086338 2.158
1.4847562 -0.27036133 2.154
1.49362 -0.27011031 2.1520002
1.500368 -0.26948273 2.1470001
1.5000329 -0.2676 2.1320002
1.5009716 -0.26596829 2.1190002
1.5017864 -0.26433659 2.1060002
1.5046312 -0.26308143 2.0960002
1.5015997 -0.26082212 2.0780001
1.5005791 -0.25893942 2.0630002
1.5038086 -0.25780976 2.0540001
1.5121106 -0.2575587 2.052
1.5218769 -0.2575587 2.052
1.533136 -0.25780976 2.0540001
1.5444142 -0.25806075 2.056
1.5572234 -0.25856286 2.0600002
1.5700705 -0.25906491 2.0640001
1.5829557 -0.25956696 2.0680001
1.6043515 -0.26144972 2.0830002
1.6266648 -0.26345798 2.0990002
1.6397737 -0.26396003 2.1030002
1.6521363 -0.26433659 2.1060002
1.6621596 -0.26433659 2.1060002
1.6721829 -0.26433659 2.1060002
1.6798099 -0.26396003 2.1030002
1.6866049 -0.26345798 2.0990002
1.6933616 -0.2629559 2.095
1.7017066 -0.26270488 2.0930002
1.7100323 -0.26245382 2.0910001
1.7183391 -0.2622028 2.089
1.7274543 -0.26207727 2.0880001
1.7340635 -0.26157522 2.0840001
1.7439822 -0.26157522 2.0840001
1.7547424 -0.26170075 2.085
1.7663585 -0.26195177 2.0870001
1.7924627 -0.26433659 2.1060002
1.8041978 -0.26458761 2.108
1.8150913 -0.26471314 2.1090002
1.8242635 -0.26458761 2.108
1.8325561 -0.26433659 2.1060002
1.8425794 -0.26433659 2.1060002
1.8226935 -0.26006901 2.072
1.8316706 -0.25994352 2.0710001
1.8397489 -0.25969249 2.069
1.854066 -0.26032007 2.0740001
1.8630384 -0.26019457 2.0730002
1.8774219 -0.26082212 2.0780001
1.8864038 -0.26069662 2.0770001
1.9209399 -0.26408553 2.1040001
0 -0 0
0 -0 0
0 -0 0
0 -0 0
0 -0 0
0 -0 0
0 -0 0
0 -0 0
0 -0 0
0 -0 0
0 -0 0
0 -0 0
0 -0 0
0 -0 0
0 -0 0
0 -0 0
-0 -0 0
-0 -0 0
-0 -0 0
-0 -0 0
-0 -0 0
-0 -0 0
-0 -0 0
-4.0413523 -0.49256584 4.079
-3.9736245 -0.4866488 4.0300002
-3.9083252 -0.48097327 3.9830003
-3.8659325 -0.47807509 3.9590001
-3.84709 -0.47807509 3.9590001
-3.8060071 -0.47529769 3.9360001
-3.7872739 -0.47529769 3.9360001
-3.7685411 -0.47529769 3.9360001
-3.7498078 -0.47529769 3.9360001
-3.7528772 -0.47807509 3.9590001
-3.7566714 -0.48097327 3.9830003
-3.7592978 -0.48375064 4.006
-3.7626395 -0.4866488 4.0300002
-3.7666819 -0.48966774 4.0550003
-3.7695613 -0.49256584 4.079
-3.7731323 -0.49558479 4.1040001
-3.7535996 -0.49558479 4.1040001
-3.7113204 -0.49256584 4.079
-3.6919067 -0.49256584 4.079
-3.6950018 -0.49558479 4.1040001
-3.6754692 -0.49558479 4.1040001
-3.6782072 -0.4986037 4.1290002
-3.6585557 -0.4986037 4.1290002
-3.661818 -0.50174338 4.1550002
-3.6420424 -0.50174338 4.1550002
-3.6222672 -0.50174338 4.1550002
-3.6024919 -0.50174338 4.1550002
-3.5827165 -0.50174338 4.1550002
-3.5192082 -0.49558479 4.1040001
-3.4783568 -0.49256584 4.079
-3.4385917 -0.48966774 4.0550003
-3.4192924 -0.48966774 4.0550003
-3.3999929 -0.48966774 4.0550003
-3.3806934 -0.48966774 4.0550003
-3.4020123 -0.49558479 4.1040001
-3.4030848 -0.4986037 4.1290002
-3.4047382 -0.50174338 4.1550002
-3.4053297 -0.50476229 4.1800003
-3.4283609 -0.5111624 4.2330003
-3.4299533 -0.51442283 4.2600002
-3.4312887 -0.51768321 4.2870002
-3.4323673 -0.52094364 4.3140001
-3.4339795 -0.52432483 4.342
-3.4361117 -0.52782679 4.3710003
-3.4371865 -0.53120798 4.3990002
-3.4162498 -0.53120798 4.3990002
-0 -0 0
-0 -0 0
-0 -0 0
-0 -0 0
-0 -0 0
-0 -0 0
-0 -0 0
-1.7421726 -0.28486466 2.3590002
-1.7287438 -0.28450239 2.3560002
-1.7153435 -0.28414011 2.3530002
-1.6997992 -0.28341559 2.3470001
-1.6871898 -0.28317404 2.345
-1.676029 -0.28317404 2.345
-1.6662883 -0.28341559 2.3470001
-1.6565282 -0.2836571 2.3490002
-1.6481501 -0.28414011 2.3530002
-1.6411254 -0.28486466 2.3590002
-1.6423346 -0.28703827 2.3770001
-1.6358246 -0.28788355 2.3840001
-1.6278853 -0.28848734 2.3890002
-1.6138085 -0.28800434 2.3850002
-1.6058166 -0.2886081 2.3900001
-1.5957761 -0.28884962 2.3920002
-1.5863787 -0.2892119 2.3950002
-1.5828711 -0.29066095 2.4070001
-1.5746796 -0.29126474 2.4120002
-1.5657922 -0.29174778 2.4160001
-1.55751 -0.29235154 2.421
-1.5510962 -0.29331762 2.4290001
-1.5458736 -0.29452518 2.4390001
-1.5380398 -0.29524973 2.4450002
-1.5295246 -0.2958535 2.45
-1.5197226 -0.29621574 2.4530001
-1.5080477 -0.29621574 2.4530001
-1.495153 -0.29597425 2.4510002
-1.4816718 -0.29561198 2.4480002
-1.4634151 -0.29428366 2.437
-1.4530081 -0.29452518 2.4390001
-1.4242615 -0.29102322 2.4100001
-1.4110326 -0.29066095 2.4070001
-1.3966695 -0.29005718 2.4020002
-1.381777 -0.28933266 2.3960001
-1.3635101 -0.28788355 2.3840001
-1.3459247 -0.28655523 2.3730001
-1.3306937 -0.28570995 2.3660002
-1.3110679 -0.28389859 2.3510001
-1.2932438 -0.28244954 2.3390002
-1.2799189 -0.28196648 2.335
-1.2535908 -0.27858531 2.3070002
-1.2372246 -0.27737775 2.2970002
-1.2214875 -0.27629092 2.2880001
-1.2053069 -0.27508336 2.2780001
-1.1886971 -0.27375507 2.2670002
-1.1763488 -0.2733928 2.2640002
-1.164029 -0.27303052 2.2610002
-1.1415362 -0.27025312 2.2380002
-1.1318953 -0.27049461 2.24
-1.1132255 -0.26856253 2.2240002
-1.0986742 -0.26759645 2.2160001
-1.0851811 -0.26687193 2.21
-1.0727178 -0.26638889 2.2060001
-1.0675151 -0.26771721 2.217
-1.057917 -0.26795873 2.2190001
-1.0482999 -0.26820025 2.2210002
-1.0386637 -0.26844177 2.223
-1.0290085 -0.26868328 2.2250001
-1.0321503 -0.27230597 2.2550001
-1.0250415 -0.27327201 2.263
-1.0165119 -0.2738758 2.2680001
-1.0079347 -0.27447957 2.273
-0.99931002 -0.27508336 2.2780001
-0.99150544 -0.27592868 2.2850001
-0.9832052 -0.2766532 2.2910001
-0.97484785 -0.27737775 2.2970002
-0.96559393 -0.27786076 2.3010001
-0.95713186 -0.27858531 2.3070002
-0.94369119 -0.27786076 2.3010001
-0.93517196 -0.27858531 2.3070002
-0.93060166 -0.28051743 2.3230002
-0.92152476 -0.28112119 2.3280001
-0.91435564 -0.28232875 2.3380001
-0.90554613 -0.28305331 2.3440001
-0.89706105 -0.28389859 2.3510001
-0.88926291 -0.28498539 2.3600001
-0.88063502 -0.28583071 2.3670001
-0.87194043 -0.28667599 2.3740001
-0.86390442 -0.28776282 2.3830001
-0.85614043 -0.28897038 2.3930001
-0.84722215 -0.28981566 2.4000001
-0.83788913 -0.29054022 2.4060001
-0.82746845 -0.29090247 2.4090002
-0.81701922 -0.29126474 2.4120002
-0.80654144 -0.29162702 2.4150002
-0.7966935 -0.29223078 2.4200001
-0 -0 0
-0 -0 0
-0 -0 0
-0 -0 0
-0 -0 0
-0 -0 0
-0 -0 0
-0.37411094 -0.15517214 1.2850001
-0.36684957 -0.1546891 1.281
-0.35990793 -0.15432686 1.2780001
-0.35244107 -0.15372305 1.273
-0.34529397 -0.15324004 1.2690001
-0.33791757 -0.15263624 1.2640001
-0.33058876 -0.15203246 1.2590001
-0.32330757 -0.15142868 1.2540001
-0.31632698 -0.15094565 1.25
-0.30938455 -0.15046263 1.2460001
-0.30248016 -0.14997961 1.2420001
-0.2956138 -0.14949659 1.238
-0.28878558 -0.14901356 1.2340001
-0.28199539 -0.14853053 1.23
-0.27501878 -0.14792675 1.225
-0.2680898 -0.14732295 1.22
-0.26120839 -0.14671917 1.215
-0.25437456 -0.14611539 1.21
-0.24779379 -0.14563237 1.2060001
-0.24105042 -0.14502859 1.2010001
-0.23455055 -0.14454556 1.197
-0.22789758 -0.14394177 1.192
-0.22147867 -0.14345875 1.1880001
-0.21491612 -0.14285497 1.1830001
-0.20857808 -0.14237194 1.179
-0.20227815 -0.14188892 1.1750001
-0.19601627 -0.14140588 1.171
-0.18962982 -0.1408021 1.166
-0.18344888 -0.14031908 1.1620001
-0.17715286 -0.1397153 1.1570001
-0.17105278 -0.13923226 1.153
-0.16499081 -0.13874926 1.149
-0.15896693 -0.13826624 1.1450001
-0.15298107 -0.1377832 1.141
-0.14703332 -0.13730018 1.1370001
-0.14112364 -0.13681714 1.133
-0.13525204 -0.13633412 1.1290001
-0.12941851 -0.13585109 1.125
-0.12362305 -0.13536806 1.1210001
-0.11797119 -0.1350058 1.118
-0.11234789 -0.13464352 1.115
-0.10675315 -0.13428126 1.1120001
-0.10118695 -0.133919 1.1090001
-0.095649317 -0.13355672 1.1060001
-0.090221964 -0.13331521 1.1040001
-0.08473669 -0.13295294 1.1010001
-0.079352163 -0.13271143 1.0990001
-0.073986679 -0.13246991 1.097
-0.068640232 -0.13222839 1.095
-0.0632549 -0.13186613 1.092
-0.05795129 -0.13162461 1.09
-0.05266672 -0.13138311 1.0880001
-0.047444832 -0.13126235 1.087
-0.042232465 -0.13114159 1.0860001
-0.037063744 -0.13114159 1.0860001
-0.031924389 -0.13126235 1.087
-0.026800131 -0.13150387 1.0890001
-0.021656832 -0.13174537 1.0910001
-0.016524678 -0.13222839 1.095
-0.011344117 -0.13259067 1.098
-0.0061461437 -0.13319445 1.103
-0.00090138975 -0.133919 1.1090001
0.0044004773 -0.13464352 1.115
0.0097594578 -0.13536806 1.1210001
0.015189015 -0.13621336 1.128
0.020666981 -0.1369379 1.1340001
0.026225043 -0.1377832 1.141
0.031849738 -0.13862848 1.148
0.037541065 -0.1394738 1.1550001
0.043299023 -0.14031908 1.1620001
0.049081594 -0.14104363 1.1680001
0.054827709 -0.14152665 1.1720001
0.060663439 -0.14213043 1.177
0.066377871 -0.14237194 1.179
0.072050273 -0.1424927 1.1800001
0 -0 0
0 -0 0
0 -0 0
0 -0 0
0 -0 0
0 -0 0
0 -0 0
0.22751448 -0.27713624 2.2950001
0.23864512 -0.27737775 2.2970002
0.24957749 -0.27737775 2.2970002
0.26062328 -0.27749851 2.2980001
0.2715604 -0.27749851 2.2980001
0.28225163 -0.27725697 2.296
0.2929239 -0.27701548 2.2940001
0.30331221 -0.27653247 2.2900002
0.31366235 -0.27604941 2.286
0.32383254 -0.27544564 2.2810001
0.33248782 -0.27363428 2.266
0.34206074 -0.27266824 2.2580001
0.35046378 -0.27085689 2.243
0.35808003 -0.26856253 2.2240002
0.36667573 -0.26711345 2.2120001
0.37566882 -0.26602662 2.2030001
0.38317397 -0.26397377 2.1860001
0.39195764 -0.26288694 2.177
0.40065566 -0.26180017 2.1680002
0.40945753 -0.2608341 2.1600001
0.41857192 -0.26010954 2.154
0.42782828 -0.25950578 2.1490002
0.43744475 -0.2591435 2.1460001
0.44598961 -0.25817746 2.138
0.45552513 -0.25781518 2.135
0.46481401 -0.25733215 2.131
0.4740648 -0.25684914 2.1270001
0.4832775 -0.2563661 2.1230001
0.49221975 -0.25576231 2.118
0.50135154 -0.2552793 2.1140001
0.51020336 -0.25467554 2.1090002
0.51925421 -0.25419247 2.105
