# .PCD v0.7 - Point Cloud Data file format
VERSION 0.7
FIELDS x y z
SIZE 4 4 4
TYPE F F F
COUNT 1 1 1
WIDTH 1665
HEIGHT 1
VIEWPOINT 0 0 0 1 0 0 0
POINTS 1665
DATA ascii
0.043359116 -0.30076844 1.3340001
0.049708173 -0.30076844 1.3340001
0.05605723 -0.30076844 1.3340001
0.062406287 -0.30076844 1.3340001
0.068755336 -0.30076844 1.3340001
0.075104393 -0.30076844 1.3340001
0.08145345 -0.30076844 1.3340001
0.087802507 -0.30076844 1.3340001
0.094151556 -0.30076844 1.3340001
0.10057595 -0.30099386 1.335
0.10700987 -0.30121934 1.3360001
0.11336844 -0.30121934 1.3360001
0.11981662 -0.3014448 1.337
0.12617995 -0.3014448 1.337
0.1325433 -0.3014448 1.337
0.13890663 -0.3014448 1.337
0.14526995 -0.3014448 1.337
0.15163329 -0.3014448 1.337
0.15799662 -0.3014448 1.337
0.16448289 -0.30167028 1.3380001
0.17085099 -0.30167028 1.3380001
0.17735153 -0.30189574 1.3390001
0.18372437 -0.30189574 1.3390001
0.19009724 -0.30189574 1.3390001
0.19661681 -0.30212119 1.34
0.20299441 -0.30212119 1.34
0.20937203 -0.30212119 1.34
0.21591066 -0.30234668 1.3410001
0.22229302 -0.30234668 1.3410001
0.2286754 -0.30234668 1.3410001
0.23505777 -0.30234668 1.3410001
0.24144015 -0.30234668 1.3410001
0.24782251 -0.30234668 1.3410001
0.25439444 -0.3025721 1.342
0.26078159 -0.3025721 1.342
0.2671687 -0.3025721 1.342
0.27355582 -0.3025721 1.342
0.27994296 -0.3025721 1.342
0.28654346 -0.30279759 1.3430001
0.29293534 -0.30279759 1.3430001
0.29932725 -0.30279759 1.3430001
0.30571911 -0.30279759 1.3430001
0.31234342 -0.30302307 1.3440001
0.31897721 -0.30324849 1.345
0.3253786 -0.30324849 1.345
0.33202672 -0.30347398 1.3460001
0.33868432 -0.30369946 1.3470001
0.34535146 -0.30392489 1.348
0.3520281 -0.30415037 1.3490001
0.35871422 -0.30437583 1.35
0.36540994 -0.30460131 1.3510001
0.37211514 -0.30482677 1.3520001
0.37882987 -0.30505222 1.353
0.38555408 -0.30527771 1.3540001
0.39199832 -0.30527771 1.3540001
0 -0 0
0 -0 0
0 -0 0
0 -0 0
0 -0 0
0 -0 0
0 -0 0
1.0522082 -0.72418904 3.2120001
1.067163 -0.72396356 3.2110002
1.0821084 -0.72373807 3.21
1.0997792 -0.72531635 3.2170002
1.1098908 -0.72193438 3.2020001
1.1174001 -0.71697414 3.1800001
1.1346718 -0.71832693 3.1860001
1.1487526 -0.71765053 3.1830001
1.1628048 -0.71697414 3.1800001
1.1664567 -0.70998484 3.1490002
1.1694382 -0.70276999 3.1170001
1.1702156 -0.69442785 3.0800002
1.1637161 -0.68202734 3.0250001
1.1411147 -0.66060829 2.9300001
1.1266761 -0.64437491 2.858
1.1011786 -0.62227952 2.7600002
1.0844381 -0.60559517 2.6860001
1.078431 -0.59522384 2.6400001
1.0740525 -0.58597988 2.5990002
1.0671935 -0.57560855 2.5530002
1.0776531 -0.57470661 2.549
1.0863645 -0.57290298 2.5410001
1.0932707 -0.5701974 2.529
1.1026849 -0.56884456 2.523
1.1124839 -0.56771731 2.5180001
1.1217886 -0.56636453 2.5120001
1.1314876 -0.56523722 2.5070002
1.1393147 -0.56320804 2.4980001
1.1502819 -0.56275707 2.4960001
1.1509868 -0.55734599 2.4720001
1.1604002 -0.55621862 2.467
1.1716665 -0.5559932 2.4660001
1.1814837 -0.55509132 2.4620001
1.192232 -0.55464041 2.46
1.202472 -0.55396402 2.457
1.2121892 -0.55306214 2.4530001
1.211391 -0.54742557 2.4280002
1.2274799 -0.54945475 2.437
1.2116227 -0.53727973 2.3830001
1.2229643 -0.53727973 2.3830001
1.2317162 -0.53615236 2.378
1.2388524 -0.53434867 2.3700001
1.2480222 -0.53344685 2.3660002
1.2576863 -0.53277045 2.3630002
1.2673217 -0.53209406 2.3600001
1.2769285 -0.53141767 2.3570001
1.2903326 -0.53231949 2.3610001
1.3015696 -0.53231949 2.3610001
1.3111384 -0.53164309 2.358
1.3195572 -0.53051579 2.3530002
1.3290595 -0.5298394 2.3500001
1.3373923 -0.52871209 2.345
1.3456779 -0.52758479 2.3400002
1.3544956 -0.52668297 2.3360002
1.362106 -0.52533013 2.3300002
1.3696593 -0.52397734 2.3240001
1.3771554 -0.52262455 2.3180001
1.3827978 -0.52059537 2.309
1.3756784 -0.5138315 2.279
1.3846999 -0.5131551 2.276
1.3992112 -0.51450789 2.2820001
1.4082185 -0.5138315 2.279
1.4115933 -0.51112598 2.2670002
1.4148536 -0.50842035 2.2550001
1.4338045 -0.51135141 2.2680001
1.4471467 -0.51225322 2.2720001
1.4592434 -0.51270419 2.2740002
1.4700664 -0.51270419 2.2740002
1.4808893 -0.51270419 2.2740002
1.4904001 -0.51225322 2.2720001
1.4992313 -0.51157683 2.2690001
1.5053719 -0.50999862 2.2620001
1.5147971 -0.50954765 2.26
1.5093528 -0.50413656 2.2360001
1.5063993 -0.49962729 2.2160001
1.5114698 -0.4978236 2.2080002
1.5137069 -0.49511802 2.1960001
1.5199943 -0.49376523 2.1900001
1.527622 -0.49286339 2.1860001
1.5352118 -0.49196154 2.1820002
1.5434719 -0.49128515 2.1790001
1.5495639 -0.48993236 2.1730001
1.555599 -0.48857957 2.1670001
1.5644675 -0.48812866 2.1650002
1.5725894 -0.48745227 2.1620002
1.5814151 -0.48700133 2.1600001
1.5828526 -0.48429576 2.148
1.5915927 -0.48384485 2.1460001
1.6010599 -0.48361939 2.1450002
1.6112689 -0.48361939 2.1450002
1.6222337 -0.48384485 2.1460001
1.6339686 -0.48429576 2.148
1.6464882 -0.48497215 2.151
1.6590364 -0.48564854 2.154
1.6762629 -0.48767772 2.1630001
1.6974738 -0.49083421 2.177
1.7133265 -0.49241245 2.184
1.7616049 -0.50323468 2.2320001
0 -0 0
1.9481961 -0.54990566 2.4390001
2.0232828 -0.56771731 2.5180001
2.0360754 -0.56794274 2.5190001
2.0773342 -0.57605946 2.5550001
2.0927653 -0.57696128 2.559
2.1049447 -0.57696128 2.559
2.1171241 -0.57696128 2.559
2.1301355 -0.57718676 2.5600002
2.1398091 -0.57651037 2.5570002
2.1494544 -0.57583398 2.5540001
2.1599169 -0.57538307 2.552
2.1703608 -0.57493216 2.5500002
2.1799297 -0.57425576 2.5470002
2.1911912 -0.57403022 2.546
2.2015779 -0.57357937 2.5440001
2.2110753 -0.57290298 2.5410001
2.2214191 -0.57245201 2.539
2.2299845 -0.57155019 2.5350001
2.2376277 -0.57042289 2.5300002
2.2461119 -0.56952101 2.526
2.2456188 -0.56636453 2.5120001
0 -0 0
0 -0 0
0 -0 0
0 -0 0
0 -0 0
0 -0 0
0 -0 0
0 -0 0
0 -0 0
0 -0 0
0 -0 0
0 -0 0
0 -0 0
0 -0 0
0 -0 0
0 -0 0
0 -0 0
0 -0 0
0 -0 0
0 -0 0
-0 -0 0
-0 -0 0
-0 -0 0
-0 -0 0
-0 -0 0
-0 -0 0
-0 -0 0
-0 -0 0
-2.9718373 -0.66520238 3.0140002
-2.9152985 -0.65571207 2.9710002
-2.8992052 -0.65527064 2.9690001
-2.8841028 -0.65504998 2.9680002
-2.8719108 -0.65549135 2.97
-2.8548889 -0.65482926 2.9670002
-2.8426826 -0.65527064 2.9690001
-2.8409369 -0.65813982 2.9820001
-2.8239005 -0.65747768 2.9790001
-0 -0 0
-0 -0 0
-0 -0 0
-0 -0 0
-0 -0 0
-2.9089158 -0.69830793 3.164
-2.8929424 -0.69808728 3.1630001
-2.9342999 -0.71177095 3.2250001
-2.9379578 -0.71640569 3.2460001
-2.95222 -0.7236889 3.279
-2.9661684 -0.73097223 3.3120003
-2.9539683 -0.73185503 3.3160002
-2.990464 -0.74487656 3.3750002
-3.0114155 -0.7541461 3.4170001
-3.0363503 -0.76451921 3.4640002
-3.0556068 -0.77356809 3.5050001
-3.0814095 -0.78438258 3.5540001
-3.073117 -0.78658962 3.5640001
-3.0981724 -0.79740411 3.6130002
-3.0792711 -0.79696274 3.6110001
-3.0603888 -0.79652131 3.6090002
-3.0406826 -0.79585922 3.6060002
-3.0117817 -0.79276937 3.5920002
-2.9896834 -0.79144514 3.5860002
-2.9659843 -0.78967947 3.5780001
-2.9234054 -0.78283769 3.5470002
-2.9065237 -0.78283769 3.5470002
-2.8912716 -0.78327912 3.5490003
-2.8760002 -0.78372049 3.5510001
-2.8623202 -0.7846033 3.5550001
-2.8742144 -0.79254866 3.5910001
-2.8547366 -0.79188651 3.5880001
-2.8447778 -0.79387289 3.5970001
-2.8308024 -0.7947557 3.6010001
-2.8175709 -0.79585922 3.6060002
-2.8011849 -0.79607993 3.6070001
-2.7847896 -0.79630065 3.6080003
-2.7683847 -0.79652131 3.6090002
-2.7512081 -0.79652131 3.6090002
-2.7575154 -0.80336314 3.6400001
-2.7401915 -0.80336314 3.6400001
-2.7251112 -0.80402523 3.6430001
-2.7077725 -0.80402523 3.6430001
-2.6889572 -0.80358386 3.6410003
-2.6723619 -0.80380458 3.6420002
-2.655757 -0.80402523 3.6430001
-2.639143 -0.80424601 3.6440003
-2.6534569 -0.81395698 3.6880002
-2.6366186 -0.81417763 3.6890001
-2.6169314 -0.81351554 3.6860001
-2.5986831 -0.81329483 3.6850002
-2.5797436 -0.8128534 3.6830001
-2.5601277 -0.81219131 3.6800001
-2.496321 -0.79740411 3.6130002
-2.4791253 -0.79740411 3.6130002
-2.4312661 -0.78747243 3.5680001
-2.4163144 -0.78813457 3.5710001
-2.4060373 -0.79034162 3.5810001
-2.3916626 -0.79122448 3.5850003
-2.3944712 -0.79784554 3.6150002
-2.4029129 -0.80645305 3.6540003
-2.4083717 -0.81417763 3.6890001
-2.3940547 -0.81528121 3.6940002
-2.4028499 -0.82433003 3.7350001
-2.4144483 -0.83448243 3.7810001
-2.3964527 -0.83448243 3.7810001
-2.3922966 -0.83933794 3.8030002
-2.3873069 -0.84397268 3.8240001
-2.3827367 -0.8488282 3.8460002
-2.3644319 -0.8488282 3.8460002
-2.3461273 -0.8488282 3.8460002
-2.3278227 -0.8488282 3.8460002
-2.3095179 -0.8488282 3.8460002
-2.3043196 -0.85368371 3.8680003
-2.2995026 -0.85875994 3.8910003
-2.2938805 -0.86361539 3.9130001
-2.2886307 -0.86869156 3.9360001
-2.2698975 -0.86869156 3.9360001
-2.2511644 -0.86869156 3.9360001
-2.2324312 -0.86869156 3.9360001
-2.2007625 -0.86361539 3.9130001
-2.1698704 -0.85875994 3.8910003
-2.1386347 -0.85368371 3.8680003
-2.1202254 -0.85368371 3.8680003
-2.0898614 -0.8488282 3.8460002
-2.0834064 -0.85368371 3.8680003
-2.0772762 -0.85875994 3.8910003
-2.0587573 -0.85875994 3.8910003
-2.0517738 -0.86361539 3.9130001
-2.0331504 -0.86361539 3.9130001
-2.0263679 -0.86869156 3.9360001
-2.0193663 -0.87376779 3.9590001
-2.0126514 -0.87906468 3.9830003
-2.0172205 -0.88943779 4.0300002
-2.0104351 -0.8949554 4.0550003
-2.0029202 -0.90025222 4.079
-2.0078204 -0.91128749 4.1290002
-2.0127261 -0.92254341 4.1800003
-2.0057039 -0.92850244 4.2070003
-1.9979529 -0.93424076 4.2330003
-1.9904217 -0.94019973 4.2600002
-1.9826334 -0.94615877 4.2870002
-1.9745882 -0.95211774 4.3140001
-1.9798747 -0.9646979 4.3710003
-1.9846183 -0.97727799 4.428
-1.9764035 -0.98367846 4.4570003
-1.9683511 -0.99029952 4.487
-1.9600132 -0.9969207 4.5170002
-1.9385149 -0.9969207 4.5170002
-1.9301733 -1.0037626 4.5480003
-1.9085274 -1.0037626 4.5480003
-1.8997428 -1.0106043 4.579
-1.8906634 -1.0174462 4.6100001
-1.881694 -1.0245087 4.6420002
-1.8724202 -1.0315713 4.6740003
-1.8632376 -1.0388545 4.7070003
-1.8666465 -1.053421 4.7730002
-1.8705863 -1.0686495 4.842
-1.8746325 -1.0843195 4.9130001
-1.8648144 -1.0922649 4.9490004
-1.8550258 -1.100431 4.9860001
-1.844885 -1.108597 5.0230002
-1.8209785 -1.108597 5.0230002
-1.7970721 -1.108597 5.0230002
-1.7731655 -1.108597 5.0230002
-1.749259 -1.108597 5.0230002
-1.7253525 -1.108597 5.0230002
-1.7014458 -1.108597 5.0230002
-1.6775393 -1.108597 5.0230002
-1.6536329 -1.108597 5.0230002
-1.6420555 -1.1169838 5.0610003
-1.6179682 -1.1169838 5.0610003
-1.6058484 -1.1253706 5.0990005
-1.5936767 -1.1339779 5.138
-1.5692229 -1.1339779 5.138
-1.544769 -1.1339779 5.138
-1.5087754 -1.1253706 5.0990005
-1.4623806 -1.108597 5.0230002
-0 -0 0
-0 -0 0
-0 -0 0
-0 -0 0
-0 -0 0
-0 -0 0
-0.69405425 -0.59413564 2.6920002
-0.67491525 -0.58861798 2.6670001
-0.65477288 -0.58199686 2.6370001
-0.63808209 -0.57824492 2.6200001
-0.6244185 -0.57714134 2.615
-0.61127061 -0.57647932 2.6120002
-0.59838051 -0.57603788 2.6100001
-0.58573395 -0.57581717 2.6090002
-0.5737561 -0.57625854 2.6110001
-0.56175923 -0.57669997 2.6130002
-0.54995358 -0.57736212 2.6160002
-0.53544831 -0.57515508 2.6060002
-0.53047144 -0.58332109 2.6430001
-0.51906806 -0.58464533 2.6490002
-0.50798982 -0.58641094 2.6570001
-0.49403909 -0.58486605 2.6500001
-0.48179001 -0.58530748 2.6520002
-0.47571373 -0.59347349 2.6890001
-0.4636043 -0.5943563 2.6930001
-0.45145676 -0.5952391 2.697
-0.43910852 -0.59590125 2.7
-0.42641604 -0.59612197 2.7010002
-0.41340771 -0.59590125 2.7
-0.40040892 -0.59568053 2.6990001
-0.38698891 -0.59479773 2.6950002
-0.3737458 -0.59413564 2.6920002
-0.36053121 -0.59347349 2.6890001
-0.34889701 -0.59545982 2.6980002
-0.335807 -0.59501845 2.6960001
-0.31866291 -0.58707309 2.6600001
-0.30565774 -0.58641094 2.6570001
-0.29257089 -0.58552814 2.6530001
-0.27941659 -0.58442467 2.6480002
-0.265403 -0.58133477 2.6340001
-0.25257871 -0.58067262 2.631
-0.23814063 -0.57603788 2.6100001
-0.22554557 -0.57559645 2.608
-0.21215238 -0.57294804 2.5960002
-0.19948909 -0.57206517 2.592
-0.18708047 -0.57184446 2.5910001
-0 -0 0
-0 -0 0
-0 -0 0
-0 -0 0
-0 -0 0
-0 -0 0
-0 -0 0
-0 -0 0
-0.03950166 -0.29684711 1.345
-0.033075646 -0.29662642 1.3440001
-0.026659142 -0.2964057 1.3430001
-0.020237071 -0.2959643 1.3410001
-0.013844368 -0.29574358 1.34
-0.0074611851 -0.2955229 1.3390001
-0.0010875198 -0.29530218 1.3380001
0.005276626 -0.29508147 1.337
0.011631254 -0.29486078 1.3360001
0.017976362 -0.29464006 1.335
0.024311952 -0.29441938 1.3340001
0.030661009 -0.29441938 1.3340001
0.037010062 -0.29441938 1.3340001
0.043359116 -0.29441938 1.3340001
0.049708173 -0.29441938 1.3340001
0.05605723 -0.29441938 1.3340001
0.062406287 -0.29441938 1.3340001
0.068755336 -0.29441938 1.3340001
0.075104393 -0.29441938 1.3340001
0.08145345 -0.29441938 1.3340001
0.087802507 -0.29441938 1.3340001
0.094222128 -0.29464006 1.335
0.10057595 -0.29464006 1.335
0.10700987 -0.29486078 1.3360001
0.11336844 -0.29486078 1.3360001
0.11981662 -0.29508147 1.337
0.12617995 -0.29508147 1.337
0.1325433 -0.29508147 1.337
0.13890663 -0.29508147 1.337
0.14526995 -0.29508147 1.337
0.15163329 -0.29508147 1.337
0.15799662 -0.29508147 1.337
0.16448289 -0.29530218 1.3380001
0.17097868 -0.2955229 1.3390001
0.17735153 -0.2955229 1.3390001
0.18372437 -0.2955229 1.3390001
0.19009724 -0.2955229 1.3390001
0.19661681 -0.29574358 1.34
0.20299441 -0.29574358 1.34
0.20937203 -0.29574358 1.34
0.21591066 -0.2959643 1.3410001
0.22229302 -0.2959643 1.3410001
0.2286754 -0.2959643 1.3410001
0.23505777 -0.2959643 1.3410001
0.24144015 -0.2959643 1.3410001
0.24782251 -0.2959643 1.3410001
0.25439444 -0.29618499 1.342
0.26078159 -0.29618499 1.342
0.2671687 -0.29618499 1.342
0.27375966 -0.2964057 1.3430001
0.28015158 -0.2964057 1.3430001
0.28675681 -0.29662642 1.3440001
0.29315346 -0.29662642 1.3440001
0.29955012 -0.29662642 1.3440001
0.30594677 -0.29662642 1.3440001
0.31257579 -0.29684711 1.345
0.31897721 -0.29684711 1.345
0.32562053 -0.29706782 1.3460001
0.33227339 -0.29728851 1.3470001
0.33893573 -0.29750922 1.348
0.34560767 -0.29772991 1.3490001
0.35228902 -0.29795063 1.35
0.35897994 -0.29817134 1.3510001
0.36568043 -0.29839203 1.3520001
0.37239033 -0.29861274 1.353
0.37910986 -0.29883343 1.3540001
0.38583881 -0.29905415 1.355
0.39228782 -0.29905415 1.355
0 -0 0
0 -0 0
0 -0 0
0 -0 0
0 -0 0
0 -0 0
0 -0 0
1.0548289 -0.71066743 3.2200003
1.0681601 -0.70934319 3.2140002
1.0831198 -0.70912248 3.2130001
1.0960187 -0.70757753 3.2060001
1.1105841 -0.70713615 3.2040002
1.1209139 -0.70404625 3.1900001
1.1360964 -0.70404625 3.1900001
1.1501962 -0.70338416 3.187
1.1639018 -0.70250136 3.1830001
1.1646045 -0.69389385 3.1440001
1.1679375 -0.68705207 3.1130002
1.1622369 -0.67513406 3.0590003
1.1506363 -0.66012615 2.9910002
1.1263152 -0.63827646 2.8920002
1.1172149 -0.62547559 2.8340001
1.1003807 -0.60870206 2.7580001
1.0840343 -0.59259069 2.6850002
1.0780226 -0.58243829 2.6390002
1.0732259 -0.57316869 2.5970001
1.0671935 -0.56345773 2.5530002
1.0776531 -0.56257486 2.549
1.0850819 -0.56014717 2.5380001
1.0945675 -0.55882293 2.5320001
1.1026849 -0.55683661 2.523
1.1124839 -0.55573308 2.5180001
1.1217886 -0.55440885 2.5120001
1.1310363 -0.55308461 2.506
1.1338415 -0.54867053 2.4860001
1.1442909 -0.54800844 2.483
1.1430714 -0.54182875 2.4550002
1.1514633 -0.5402838 2.4480002
1.1607386 -0.53918028 2.4430001
1.1656474 -0.53609043 2.4290001
1.1752695 -0.53520763 2.4250002
1.1877898 -0.535649 2.427
1.1983526 -0.53520763 2.4250002
1.210892 -0.535649 2.427
1.2249615 -0.53675252 2.4320002
1.2116227 -0.52593803 2.3830001
1.2219379 -0.5254966 2.381
1.2311982 -0.5246138 2.3770001
1.239375 -0.52328956 2.3710001
1.2490771 -0.52262741 2.368
1.2587507 -0.52196532 2.365
1.2683958 -0.52130324 2.3620002
1.2785538 -0.5208618 2.3600001
1.2876 -0.519979 2.3560002
1.2966081 -0.5190962 2.352
1.305578 -0.51821339 2.348
1.3139492 -0.51710987 2.3430002
1.3290595 -0.51865476 2.3500001
1.3311189 -0.51512355 2.3340001
1.3456779 -0.51644772 2.3400002
1.3539157 -0.5153442 2.335
1.359183 -0.51313716 2.325
1.3667125 -0.51181293 2.319
1.374185 -0.51048875 2.3130002
1.3672271 -0.50386757 2.283
1.3768857 -0.50342619 2.2810001
1.3859168 -0.50276411 2.2780001
1.4010507 -0.504309 2.2850001
1.4094543 -0.50342619 2.2810001
1.4047438 -0.49790859 2.256
1.4148536 -0.49768788 2.2550001
1.4344367 -0.50077772 2.2690001
1.4465098 -0.50121915 2.2710001
1.4553932 -0.50055707 2.2680001
1.4674805 -0.5009985 2.2700002
1.4789357 -0.50121915 2.2710001
1.4890883 -0.5009985 2.2700002
1.4992313 -0.50077772 2.2690001
1.506703 -0.49967423 2.2640002
1.5161376 -0.4992328 2.2620001
1.5012527 -0.4908461 2.2240002
1.507079 -0.48930112 2.217
1.5114698 -0.48731482 2.2080002
1.5102605 -0.48356286 2.1910002
1.5193002 -0.48312142 2.1890001
1.5269233 -0.48223862 2.1850002
1.5352118 -0.4815765 2.1820002
1.5427636 -0.4806937 2.1780002
1.5495639 -0.47959015 2.1730001
1.556317 -0.47848666 2.1680002
1.5644675 -0.47782454 2.1650002
1.5725894 -0.47716242 2.1620002
1.5806829 -0.4765003 2.1590002
1.5813789 -0.47363114 2.1460001
1.5901092 -0.47318971 2.1440001
1.5995669 -0.47296903 2.1430001
1.6097665 -0.47296903 2.1430001
1.6207218 -0.47318971 2.1440001
1.6324474 -0.47363114 2.1460001
1.6449574 -0.47429326 2.1490002
1.6574961 -0.47495538 2.1520002
1.675488 -0.47716242 2.1620002
1.6982536 -0.4806937 2.1780002
1.7219559 -0.48444566 2.1950002
1.7560802 -0.49106678 2.2250001
0 -0 0
2.0144937 -0.55661589 2.5220001
2.0329254 -0.55838156 2.5300002
2.0368838 -0.55617452 2.5200002
2.0789602 -0.56434053 2.5570002
2.0927653 -0.5647819 2.559
2.1049447 -0.5647819 2.559
2.116297 -0.56456125 2.5580001
2.1251431 -0.56367844 2.5540001
2.136462 -0.56345773 2.5530002
2.1469295 -0.5630163 2.5510001
2.1573777 -0.56257486 2.549
2.1669562 -0.56191278 2.546
2.1773622 -0.5614714 2.5440001
2.1886094 -0.56125069 2.5430002
2.1989818 -0.56080925 2.5410001
2.2084649 -0.56014717 2.5380001
2.2196693 -0.55992645 2.5370002
2.2167895 -0.55617452 2.5200002
2.2340899 -0.55749869 2.526
2.2416661 -0.55639517 2.5210001
2.2500887 -0.55551237 2.5170002
2.2476888 -0.55198115 2.5010002
0 -0 0
0 -0 0
0 -0 0
0 -0 0
0 -0 0
0 -0 0
0 -0 0
0 -0 0
0 -0 0
0 -0 0
0 -0 0
0 -0 0
0 -0 0
0 -0 0
0 -0 0
0 -0 0
0 -0 0
0 -0 0
0 -0 0
-0 -0 0
-0 -0 0
-0 -0 0
-0 -0 0
-0 -0 0
-0 -0 0
-0 -0 0
-0 -0 0
-0 -0 0
-2.9408112 -0.64718646 2.9970002
-2.9216645 -0.64610672 2.9920001
-2.9064529 -0.64589077 2.9910002
-2.8748116 -0.64200377 2.973
-2.8587377 -0.64157188 2.9710002
-2.8455548 -0.64178783 2.9720001
-2.8437948 -0.64459509 2.9850001
-0 -0 0
-0 -0 0
-0 -0 0
-0 -0 0
-0 -0 0
-0 -0 0
-0 -0 0
-2.923125 -0.69015944 3.1960001
-2.9406688 -0.69793344 3.2320001
-2.9479139 -0.70333213 3.2570002
-2.9612236 -0.71024233 3.2890003
-2.9778106 -0.71801633 3.325
-3.0074177 -0.72902954 3.3760002
-2.9833753 -0.72708601 3.3670001
-3.0158222 -0.73896301 3.4220002
-3.0354736 -0.74781668 3.4630001
-3.0582223 -0.75753421 3.5080001
-3.0831435 -0.76789957 3.5560002
-3.1145058 -0.77999252 3.6120002
-3.1024601 -0.78128815 3.6180003
-3.0809767 -0.78020841 3.6130002
-3.0620847 -0.77977651 3.6110001
-3.0415258 -0.77891272 3.6070001
-3.0042353 -0.7737301 3.5830002
-2.9880159 -0.77394599 3.5840001
-2.9668136 -0.77286631 3.5790002
-2.9242296 -0.76617199 3.5480001
-2.9073431 -0.76617199 3.5480001
-2.8920863 -0.76660389 3.5500002
-2.8768103 -0.76703584 3.5520003
-2.8623202 -0.76768363 3.5550001
-2.8742144 -0.77545762 3.5910001
-2.8555324 -0.77502578 3.5890002
-2.8700857 -0.78366357 3.6290002
-2.8543861 -0.78409547 3.6310003
-2.8410115 -0.78517514 3.6360002
-2.8516638 -0.79294914 3.6720002
-2.8349588 -0.79316509 3.6730001
-2.8190119 -0.79359698 3.6750002
-2.8030457 -0.79402894 3.6770003
-2.7870603 -0.79446077 3.6790001
-2.7725618 -0.79532456 3.6830001
-2.7557809 -0.79554051 3.6840003
-2.7367606 -0.79510862 3.6820002
-2.7207136 -0.79554051 3.6840003
-2.7053812 -0.79618835 3.6870003
-2.6900201 -0.79683614 3.6900001
-2.6731822 -0.79705215 3.6910002
-2.6520178 -0.79597241 3.6860001
-2.6373334 -0.79683614 3.6900001
-2.6190615 -0.79662019 3.6890001
-2.5993881 -0.79597241 3.6860001
-2.5797436 -0.79532456 3.6830001
-2.5601277 -0.79467672 3.6800001
-2.496321 -0.78020841 3.6130002
-2.4791253 -0.78020841 3.6130002
-2.4619296 -0.78020841 3.6130002
-2.4183443 -0.77178657 3.5740001
-2.4053655 -0.77308226 3.5800002
-2.3929968 -0.77459383 3.5870001
-2.3971207 -0.78150409 3.6190002
-2.4015975 -0.78863025 3.6520002
-2.4083717 -0.79662019 3.6890001
-2.4128494 -0.80396235 3.7230003
-2.4022067 -0.80633777 3.7340002
-2.4144483 -0.81648713 3.7810001
-2.4103968 -0.82123792 3.8030002
-2.4055066 -0.82577276 3.8240001
-2.3873069 -0.82577276 3.8240001
-2.3827367 -0.83052355 3.8460002
-2.3644319 -0.83052355 3.8460002
-2.3461273 -0.83052355 3.8460002
-2.3411384 -0.83527434 3.8680003
-2.3227289 -0.83527434 3.8680003
-2.3180215 -0.84024107 3.8910003
-2.2995026 -0.84024107 3.8910003
-2.2938805 -0.84499186 3.9130001
-2.2886307 -0.84995854 3.9360001
-2.2698975 -0.84995854 3.9360001
-2.2511644 -0.84995854 3.9360001
-2.2324312 -0.84995854 3.9360001
-2.2007625 -0.84499186 3.9130001
-2.1698704 -0.84024107 3.8910003
-2.1386347 -0.83527434 3.8680003
-2.1081662 -0.83052355 3.8460002
-2.0898614 -0.83052355 3.8460002
-2.0715566 -0.83052355 3.8460002
-2.0649972 -0.83527434 3.8680003
-2.0465877 -0.83527434 3.8680003
-2.0281782 -0.83527434 3.8680003
-2.0217197 -0.84024107 3.8910003
-2.0145268 -0.84499186 3.9130001
-2.0076346 -0.84995854 3.9360001
-2.000524 -0.85492527 3.9590001
-1.9936947 -0.86010802 3.9830003
-1.9861411 -0.86507469 4.006
-1.9788597 -0.87025738 4.0300002
-1.9835066 -0.88083863 4.079
-1.9881687 -0.89163589 4.1290002
-1.9809127 -0.89725047 4.1550002
-1.9729372 -0.9026491 4.1800003
-1.9656583 -0.90847963 4.2070003
-1.9701465 -0.91992468 4.2600002
-1.9622298 -0.9257552 4.2870002
-1.954056 -0.93158567 4.3140001
-1.9590712 -0.94389457 4.3710003
-1.9382678 -0.94389457 4.3710003
-1.9297475 -0.94994098 4.3990002
-1.9088107 -0.94994098 4.3990002
-1.9003197 -0.95620334 4.428
-1.8915528 -0.96246582 4.4570003
-1.8955184 -0.9754225 4.5170002
-1.8868816 -0.98211682 4.5480003
-1.8779495 -0.98881102 4.579
-1.8687223 -0.99550533 4.6100001
-1.8724202 -1.0093259 4.6740003
-1.8632376 -1.016452 4.7070003
-1.8666465 -1.0307044 4.7730002
-1.8705863 -1.0456045 4.842
-1.8746325 -1.0609366 4.9130001
-1.8648144 -1.0687107 4.9490004
-1.8550258 -1.0767006 4.9860001
-1.844885 -1.0846906 5.0230002
-1.8209785 -1.0846906 5.0230002
-1.7970721 -1.0846906 5.0230002
-1.7731655 -1.0846906 5.0230002
-1.749259 -1.0846906 5.0230002
-1.7253525 -1.0846906 5.0230002
-1.7014458 -1.0846906 5.0230002
-1.6775393 -1.0846906 5.0230002
-1.6536329 -1.0846906 5.0230002
-1.6420555 -1.0928965 5.0610003
-1.6179682 -1.0928965 5.0610003
-1.6058484 -1.1011024 5.0990005
-1.5936767 -1.1095241 5.138
-1.5692229 -1.1095241 5.138
-1.544769 -1.1095241 5.138
-1.5087754 -1.1011024 5.0990005
-1.4623806 -1.0846906 5.0230002
-0 -0 0
-0 -0 0
-0 -0 0
-0 -0 0
-0 -0 0
-0 -0 0
-0.69431204 -0.58153921 2.6930001
-0.67466223 -0.57570875 2.6660001
-0.65303481 -0.56793475 2.6300001
-0.6378386 -0.56555933 2.6190002
-0.6244185 -0.56469554 2.615
-0.61127061 -0.56404775 2.6120002
-0.59838051 -0.56361586 2.6100001
-0.58595842 -0.56361586 2.6100001
-0.5737561 -0.56383175 2.6110001
-0.56197423 -0.56447959 2.6140001
-0.54995358 -0.56491148 2.6160002
-0.53565371 -0.56296802 2.6070001
-0.52886581 -0.56901449 2.6350002
-0.51887208 -0.57182175 2.6480002
-0.50741625 -0.57311738 2.654
-0.49403909 -0.57225358 2.6500001
-0.48179001 -0.57268554 2.6520002
-0.47553682 -0.58045954 2.6880002
-0.46343216 -0.58132333 2.6920002
-0.45128939 -0.58218706 2.6960001
-0.43894589 -0.5828349 2.6990001
-0.42625812 -0.58305085 2.7
-0.41325459 -0.5828349 2.6990001
-0.40011221 -0.582403 2.697
-0.38698891 -0.58197117 2.6950002
-0.37360698 -0.58110738 2.6910002
-0.36200604 -0.58305085 2.7
-0.34889701 -0.58261901 2.6980002
-0.335807 -0.58218706 2.6960001
-0.3190223 -0.5750609 2.6630001
-0.30577281 -0.57398123 2.6580002
-0.29257089 -0.57290143 2.6530001
-0.27952209 -0.5720377 2.6490002
-0.26510072 -0.56815064 2.631
-0.25190669 -0.56663907 2.6240001
-0.23814063 -0.56361586 2.6100001
-0.22528613 -0.56253606 2.605
-0.21223409 -0.56080854 2.5970001
-0.19956605 -0.55994481 2.5930002
-0.18708047 -0.55951285 2.5910001
-0 -0 0
-0 -0 0
-0 -0 0
-0 -0 0
-0 -0 0
-0 -0 0
-0 -0 0
-0 -0 0
-0.03950166 -0.29044569 1.345
-0.033075646 -0.29022977 1.3440001
-0.026659142 -0.29001382 1.3430001
-0.020252161 -0.28979787 1.342
-0.013844368 -0.28936598 1.34
-0.0074611851 -0.28915006 1.3390001
-0.0010875198 -0.28893408 1.3380001
0.005276626 -0.28871813 1.337
0.011631254 -0.28850222 1.3360001
0.017976362 -0.28828624 1.335
0.024311952 -0.28807032 1.3340001
0.030661009 -0.28807032 1.3340001
0.037010062 -0.28807032 1.3340001
0.043359116 -0.28807032 1.3340001
0.049708173 -0.28807032 1.3340001
0.05605723 -0.28807032 1.3340001
0.062406287 -0.28807032 1.3340001
0.068755336 -0.28807032 1.3340001
0.075104393 -0.28807032 1.3340001
0.08145345 -0.28807032 1.3340001
0.087802507 -0.28807032 1.3340001
0.094222128 -0.28828624 1.335
0.10057595 -0.28828624 1.335
0.10700987 -0.28850222 1.3360001
0.11336844 -0.28850222 1.3360001
0.11981662 -0.28871813 1.337
0.12617995 -0.28871813 1.337
0.1325433 -0.28871813 1.337
0.13890663 -0.28871813 1.337
0.14526995 -0.28871813 1.337
0.15163329 -0.28871813 1.337
0.15811479 -0.28893408 1.3380001
0.16448289 -0.28893408 1.3380001
0.17097868 -0.28915006 1.3390001
0.17735153 -0.28915006 1.3390001
0.18372437 -0.28915006 1.3390001
0.19009724 -0.28915006 1.3390001
0.19661681 -0.28936598 1.34
0.20299441 -0.28936598 1.34
0.20952828 -0.28958192 1.3410001
0.21591066 -0.28958192 1.3410001
0.22229302 -0.28958192 1.3410001
0.2286754 -0.28958192 1.3410001
0.23505777 -0.28958192 1.3410001
0.24144015 -0.28958192 1.3410001
0.24782251 -0.28958192 1.3410001
0.2542049 -0.28958192 1.3410001
0.26078159 -0.28979787 1.342
0.26736778 -0.29001382 1.3430001
0.27375966 -0.29001382 1.3430001
0.28036019 -0.29022977 1.3440001
0.28675681 -0.29022977 1.3440001
0.29315346 -0.29022977 1.3440001
0.29977301 -0.29044569 1.345
0.3061744 -0.29044569 1.345
0.31280822 -0.29066166 1.3460001
0.31921437 -0.29066166 1.3460001
0.32586247 -0.29087761 1.3470001
0.33252007 -0.29109353 1.348
0.33918718 -0.29130951 1.3490001
0.34612003 -0.29174137 1.3510001
0.35281095 -0.29195732 1.3520001
0.35951138 -0.29217327 1.353
0.36622137 -0.29238921 1.3540001
0.37294081 -0.29260513 1.355
0.37966985 -0.29282111 1.3560001
0.3861236 -0.29282111 1.3560001
0.39257732 -0.29282111 1.3560001
0 -0 0
0 -0 0
0 -0 0
0 -0 0
0 -0 0
0 -0 0
0 -0 0
1.0554841 -0.69577402 3.2220001
1.0704865 -0.69555807 3.2210002
1.0851424 -0.69512618 3.2190001
1.1028559 -0.69663781 3.2260001
1.111624 -0.69253486 3.2070003
1.1212653 -0.68907976 3.1910002
1.137521 -0.6897276 3.1940002
1.1516398 -0.68907976 3.1910002
1.1613423 -0.68584055 3.1760001
1.1627525 -0.6778506 3.1390002
1.1664368 -0.67137229 3.1090002
1.1504587 -0.65388072 3.0280001
1.1406342 -0.64027619 2.9650002
1.1224207 -0.62235284 2.8820002
1.1164263 -0.61155552 2.832
1.094396 -0.59233648 2.743
1.0840343 -0.57981169 2.6850002
1.0776139 -0.56966227 2.638
1.0732259 -0.56080854 2.5970001
1.0667753 -0.55109102 2.552
1.0776531 -0.55044317 2.549
1.0876471 -0.54936349 2.5440001
1.0928384 -0.54590833 2.5280001
1.103122 -0.5450446 2.5240002
1.1124839 -0.54374892 2.5180001
1.1222352 -0.54266918 2.513
1.1310363 -0.54115754 2.506
1.1370341 -0.53835028 2.493
1.1350739 -0.53187191 2.4630001
1.147262 -0.53208792 2.4640002
1.1448779 -0.52560955 2.434
1.1540868 -0.52452981 2.4290001
1.1637279 -0.52366608 2.4250002
1.1723615 -0.5223704 2.4190001
1.1775123 -0.51956308 2.4060001
1.1864926 -0.51848334 2.401
1.1949264 -0.51718771 2.3950002
1.2043104 -0.51632392 2.391
1.2121311 -0.51481229 2.3840001
1.2219379 -0.51416445 2.381
1.2311982 -0.51330072 2.3770001
1.2398978 -0.51222098 2.3720002
1.2501321 -0.51178908 2.3700001
1.2598152 -0.51114124 2.3670001
1.2700067 -0.51070935 2.365
1.2796375 -0.51006156 2.3620002
1.2886931 -0.50919771 2.358
1.2971594 -0.50811803 2.3530002
1.305578 -0.5070383 2.348
1.3139492 -0.50595862 2.3430002
1.3222728 -0.50487882 2.3380001
1.3305486 -0.50379914 2.3330002
1.3387769 -0.5027194 2.3280001
1.3469578 -0.50163972 2.3230002
1.3597676 -0.50228757 2.3260002
1.3673019 -0.50099188 2.3200002
1.3747791 -0.4996962 2.3140001
1.3696227 -0.4938657 2.2870002
1.3786966 -0.49321786 2.2840002
1.3877419 -0.49257001 2.2810001
1.402277 -0.4938657 2.2870002
1.4082185 -0.49213809 2.279
1.4171972 -0.49149027 2.276
1.4292845 -0.49192217 2.2780001
1.4407586 -0.49213809 2.279
1.4528793 -0.49257001 2.2810001
1.4637353 -0.49257001 2.2810001
1.4797633 -0.49429753 2.289
1.491309 -0.49451351 2.2900002
1.493024 -0.49149027 2.276
1.5012136 -0.49062648 2.2720001
1.5000479 -0.48673952 2.2540002
1.5147971 -0.48803514 2.26
1.5019276 -0.48047709 2.2250001
1.5125173 -0.48047709 2.2250001
1.5148925 -0.47788575 2.2130001
1.5068139 -0.47205526 2.1860001
1.5193002 -0.4727031 2.1890001
1.5269233 -0.47183931 2.1850002
1.5345081 -0.47097549 2.181
1.5420551 -0.47011173 2.177
1.5495639 -0.46924797 2.1730001
1.5577526 -0.46860012 2.1700001
1.5651901 -0.46773636 2.1660001
1.5653157 -0.46471316 2.1520002
1.5726293 -0.46384934 2.148
1.580642 -0.46320155 2.1450002
1.5893676 -0.46276963 2.1430001
1.5988206 -0.46255371 2.1420002
1.6090153 -0.46255371 2.1420002
1.6199659 -0.46276963 2.1430001
1.6316867 -0.46320155 2.1450002
1.6441919 -0.46384934 2.148
1.6567258 -0.46449718 2.151
1.675488 -0.4668726 2.1620002
1.6982536 -0.47032771 2.1780002
1.7337232 -0.47723791 2.21
1.7813362 -0.48738736 2.2570002
1.9103855 -0.51956308 2.4060001
1.9665678 -0.53165603 2.4620001
2.0337288 -0.54655617 2.5310001
2.0385003 -0.54461271 2.5220001
2.0797732 -0.5523867 2.5580001
2.0927653 -0.55260265 2.559
2.1041224 -0.5523867 2.5580001
2.1146424 -0.55195487 2.5560002
2.1234789 -0.55109102 2.552
2.1331143 -0.55044317 2.549
2.1343052 -0.54763591 2.536
2.1548388 -0.54979533 2.546
2.1635518 -0.5489316 2.5420001
2.1765063 -0.54914755 2.5430002
2.1739783 -0.54547644 2.526
2.1842699 -0.5450446 2.5240002
2.1945424 -0.54461271 2.5220001
2.2047958 -0.54418081 2.5200002
2.2115114 -0.54288512 2.5140002
2.2296677 -0.54439676 2.5210001
2.2354417 -0.54288512 2.5140002
2.2456188 -0.54245323 2.5120001
2.2449927 -0.53943002 2.4980001
2.2514606 -0.53813434 2.4920001
0 -0 0
0 -0 0
0 -0 0
0 -0 0
0 -0 0
0 -0 0
0 -0 0
0 -0 0
0 -0 0
0 -0 0
0 -0 0
0 -0 0
0 -0 0
0 -0 0
0 -0 0
0 -0 0
0 -0 0
0 -0 0
-0 -0 0
-0 -0 0
-0 -0 0
-0 -0 0
-0 -0 0
-0 -0 0
-0 -0 0
-0 -0 0
-2.9264808 -0.62679809 2.9680002
-2.9398296 -0.63271129 2.9960001
-2.9197116 -0.63144422 2.9900002
-2.9045093 -0.63123298 2.9890001
-2.8748116 -0.62785399 2.973
-2.860662 -0.62785399 2.973
-2.8474698 -0.62806523 2.9740002
-2.8361735 -0.62869877 2.9770002
-0 -0 0
-0 -0 0
-0 -0 0
-0 -0 0
-0 -0 0
-0 -0 0
-0 -0 0
-2.9679413 -0.68529642 3.2450001
-2.9797928 -0.69163197 3.2750001
-3.0085557 -0.70198005 3.3240001
-2.9990377 -0.70345837 3.3310001
-2.9885578 -0.7047255 3.3370001
-3.0091994 -0.71338409 3.3780003
-3.0276785 -0.72162032 3.4170001
-3.0625312 -0.73386908 3.4750001
-3.0784242 -0.74168295 3.5120001
-3.1105294 -0.75350928 3.5680001
-3.1264946 -0.76153433 3.6060002
-3.10847 -0.76132321 3.6050003
-3.100745 -0.76364619 3.6160002
-3.0826821 -0.76343507 3.6150002
-3.062933 -0.76280147 3.6120002
-3.0415258 -0.76174551 3.6070001
-3.0075891 -0.75752181 3.5870001
-2.9896834 -0.75731063 3.5860002
-2.9701293 -0.75667709 3.5830002
-2.9250541 -0.74949682 3.5490003
-2.9081628 -0.74949682 3.5490003
-2.8920863 -0.749708 3.5500002
-2.8768103 -0.75013036 3.5520003
-2.8921108 -0.75857776 3.5920002
-2.8742144 -0.75836658 3.5910001
-2.856328 -0.75815541 3.5900002
-2.8716676 -0.76681399 3.6310003
-2.8567443 -0.76744753 3.6340001
-2.8683591 -0.7752614 3.6710002
-2.8524404 -0.77568376 3.6730001
-2.8519394 -0.78032982 3.6950002
-2.8351204 -0.780541 3.6960001
-2.8365877 -0.78582066 3.7210002
-2.8211505 -0.78645426 3.7240002
-2.8064377 -0.78729898 3.7280002
-2.7879467 -0.7870878 3.7270002
-2.769465 -0.78687656 3.7260001
-2.7517314 -0.78687656 3.7260001
-2.7347317 -0.7870878 3.7270002
-2.7177222 -0.78729898 3.7280002
-2.6999793 -0.78729898 3.7280002
-2.6843946 -0.78793252 3.7310002
-2.6659224 -0.78772134 3.7300003
-2.6197712 -0.77927393 3.6900001
-2.6000936 -0.77864039 3.6870003
-2.5797436 -0.77779561 3.6830001
-2.5601277 -0.77716208 3.6800001
-2.5377765 -0.77568376 3.6730001
-2.4798112 -0.76322383 3.6140001
-2.4632924 -0.76343507 3.6150002
-2.4501469 -0.76470214 3.6210003
-2.4342568 -0.7651245 3.6230001
-2.4203494 -0.76618046 3.6280003
-2.4256027 -0.77336073 3.6620002
-2.4035704 -0.77188247 3.6550002
-2.4116361 -0.7801187 3.6940002
-2.4186821 -0.78814369 3.7320001
-2.4022067 -0.78856611 3.7340002
-2.4010382 -0.79405689 3.7600002
-2.4103968 -0.8031379 3.8030002
-2.4055066 -0.80757272 3.8240001
-2.4010415 -0.81221884 3.8460002
-2.3827367 -0.81221884 3.8460002
-2.3644319 -0.81221884 3.8460002
-2.3461273 -0.81221884 3.8460002
-2.3411384 -0.81686491 3.8680003
-2.3365402 -0.82172221 3.8910003
-2.3180215 -0.82172221 3.8910003
-2.3125041 -0.82636827 3.9130001
-2.3073635 -0.83122551 3.9360001
-2.2886307 -0.83122551 3.9360001
-2.2831616 -0.83608276 3.9590001
-2.2643189 -0.83608276 3.9590001
-2.2454765 -0.83608276 3.9590001
-2.2136984 -0.83122551 3.9360001
-2.1821389 -0.82636827 3.9130001
-2.1513515 -0.82172221 3.8910003
-2.1202254 -0.81686491 3.8680003
-2.1018159 -0.81686491 3.8680003
-2.0834064 -0.81686491 3.8680003
-2.0649972 -0.81686491 3.8680003
-2.0465877 -0.81686491 3.8680003
-2.0402384 -0.82172221 3.8910003
-2.0217197 -0.82172221 3.8910003
-2.0145268 -0.82636827 3.9130001
-2.0076346 -0.83122551 3.9360001
-2.000524 -0.83608276 3.9590001
-1.9936947 -0.84115124 3.9830003
-1.9861411 -0.84600848 4.006
-1.9788597 -0.85107696 4.0300002
-1.9718362 -0.85635662 4.0550003
-1.9761308 -0.86670464 4.1040001
-1.9685171 -0.8719843 4.1290002
-1.9611373 -0.87747514 4.1550002
-1.953043 -0.88275474 4.1800003
-1.9456353 -0.88845676 4.2070003
-1.9375131 -0.8939476 4.2330003
-1.9295964 -0.89964956 4.2600002
-1.9214226 -0.90535158 4.2870002
-1.901019 -0.90535158 4.2870002
-1.8924598 -0.91105354 4.3140001
-1.8719276 -0.91105354 4.3140001
-1.8634119 -0.91696674 4.342
-1.8550544 -0.92309117 4.3710003
-1.8581703 -0.93512869 4.428
-1.8615737 -0.94758862 4.487
-1.852522 -0.95392418 4.5170002
-1.8561561 -0.96701765 4.579
-1.8596009 -0.98032236 4.6420002
-1.8632376 -0.99404943 4.7070003
-1.8666465 -1.0079876 4.7730002
-1.8705863 -1.0225594 4.842
-1.8608961 -1.029951 4.8770003
-1.8376844 -1.029951 4.8770003
-1.8278664 -1.0375535 4.9130001
-1.8177058 -1.0451564 4.9490004
-1.7941514 -1.0451564 4.9490004
-1.7705972 -1.0451564 4.9490004
-1.7601041 -1.0529701 4.9860001
-1.7363737 -1.0529701 4.9860001
-1.7126433 -1.0529701 4.9860001
-1.6889127 -1.0529701 4.9860001
-1.6775393 -1.060784 5.0230002
-1.6536329 -1.060784 5.0230002
-1.6420555 -1.068809 5.0610003
-1.6179682 -1.068809 5.0610003
-1.6058484 -1.0768341 5.0990005
-1.5936767 -1.0850703 5.138
-1.5692229 -1.0850703 5.138
-1.544769 -1.0850703 5.138
-1.5087754 -1.0768341 5.0990005
-1.4734439 -1.068809 5.0610003
-0 -0 0
-0 -0 0
-0 -0 0
-0 -0 0
-0 -0 0
-0 -0 0
-0.69431204 -0.56872213 2.6930001
-0.67466223 -0.56302011 2.6660001
-0.65303481 -0.55541748 2.6300001
-0.63832563 -0.55351681 2.6210001
-0.62465733 -0.55246085 2.6160002
-0.61150461 -0.55182731 2.6130002
-0.59860975 -0.55140495 2.6110001
-0.58618289 -0.55140495 2.6110001
-0.57397586 -0.55161613 2.6120002
-0.56218922 -0.55224967 2.615
-0.54995358 -0.55246085 2.6160002
-0.53811938 -0.55309445 2.6190002
-0.52886581 -0.55647343 2.6350002
-0.5186761 -0.55900759 2.6470001
-0.50703388 -0.56006354 2.6520002
-0.49403909 -0.55964118 2.6500001
-0.48742178 -0.56661028 2.6830001
-0.47571373 -0.56787741 2.6890001
-0.4636043 -0.56872213 2.6930001
-0.45128939 -0.56935567 2.6960001
-0.4386206 -0.56956685 2.697
-0.42594239 -0.56977808 2.6980002
-0.41294837 -0.56956685 2.697
-0.39981553 -0.56914449 2.6950002
-0.38684532 -0.56893337 2.6940002
-0.37513417 -0.5706228 2.7020001
-0.36187199 -0.56998926 2.6990001
-0.34889701 -0.56977808 2.6980002
-0.33219483 -0.56323129 2.6670001
-0.3190223 -0.56238657 2.6630001
-0.30577281 -0.56133068 2.6580002
-0.29257089 -0.56027472 2.6530001
-0.27941659 -0.55921882 2.6480002
-0.26469767 -0.55478388 2.6270001
-0.25171471 -0.55372798 2.6220002
-0.23804939 -0.55098259 2.6090002
-0.22468075 -0.5486595 2.598
-0.21223409 -0.54844832 2.5970001
-0.19956605 -0.54760361 2.5930002
-0.18708047 -0.54718125 2.5910001
-0 -0 0
-0 -0 0
-0 -0 0
-0 -0 0
-0 -0 0
-0 -0 0
-0 -0 0
-0 -0 0
-0.03953103 -0.28425547 1.3460001
-0.033075646 -0.28383312 1.3440001
-0.026659142 -0.28362191 1.3430001
-0.020252161 -0.28341073 1.342
-0.013844368 -0.28298837 1.34
-0.0074611851 -0.28277719 1.3390001
-0.0010875198 -0.28256598 1.3380001
0.005276626 -0.2823548 1.337
0.011631254 -0.28214362 1.3360001
0.017976362 -0.28193244 1.335
0.024311952 -0.28172126 1.3340001
0.030661009 -0.28172126 1.3340001
0.037010062 -0.28172126 1.3340001
0.043359116 -0.28172126 1.3340001
0.049708173 -0.28172126 1.3340001
0.05605723 -0.28172126 1.3340001
0.062406287 -0.28172126 1.3340001
0.068755336 -0.28172126 1.3340001
0.075104393 -0.28172126 1.3340001
0.08145345 -0.28172126 1.3340001
0.087802507 -0.28172126 1.3340001
0.094222128 -0.28193244 1.335
0.10057595 -0.28193244 1.335
0.10700987 -0.28214362 1.3360001
0.11336844 -0.28214362 1.3360001
0.11981662 -0.2823548 1.337
0.12617995 -0.2823548 1.337
0.1325433 -0.2823548 1.337
0.13890663 -0.2823548 1.337
0.14526995 -0.2823548 1.337
0.15163329 -0.2823548 1.337
0.15811479 -0.28256598 1.3380001
0.16448289 -0.28256598 1.3380001
0.17097868 -0.28277719 1.3390001
0.17735153 -0.28277719 1.3390001
0.18372437 -0.28277719 1.3390001
0.19009724 -0.28277719 1.3390001
0.19661681 -0.28298837 1.34
0.20299441 -0.28298837 1.34
0.20952828 -0.28319955 1.3410001
0.21591066 -0.28319955 1.3410001
0.22229302 -0.28319955 1.3410001
0.2286754 -0.28319955 1.3410001
0.23505777 -0.28319955 1.3410001
0.24144015 -0.28319955 1.3410001
0.24782251 -0.28319955 1.3410001
0.25439444 -0.28341073 1.342
0.26078159 -0.28341073 1.342
0.26736778 -0.28362191 1.3430001
0.27396354 -0.28383312 1.3440001
0.28036019 -0.28383312 1.3440001
0.28675681 -0.28383312 1.3440001
0.29337159 -0.2840443 1.345
0.29977301 -0.2840443 1.345
0.30640203 -0.28425547 1.3460001
0.31304061 -0.28446668 1.3470001
0.31945154 -0.28446668 1.3470001
0.32610437 -0.28467783 1.348
0.33276674 -0.28488904 1.3490001
0.33969006 -0.2853114 1.3510001
0.34637624 -0.28552261 1.3520001
0.3530719 -0.28573376 1.353
0.35977709 -0.28594497 1.3540001
0.36649182 -0.28615615 1.355
0.37321603 -0.28636733 1.3560001
0.37966985 -0.28636733 1.3560001
0.38640836 -0.28657854 1.3570001
0.39257732 -0.28636733 1.3560001
0 -0 0
0 -0 0
0 -0 0
0 -0 0
0 -0 0
0 -0 0
0 -0 0
1.0551565 -0.68022799 3.2210002
1.0711511 -0.68065035 3.223
1.0861537 -0.68043917 3.2220001
1.1031978 -0.68149513 3.2270002
1.1147436 -0.67917204 3.2160001
1.119157 -0.67262536 3.1850002
1.1353841 -0.6732589 3.1880002
1.1534443 -0.67494833 3.1960001
1.1620736 -0.67114705 3.1780002
1.1623821 -0.66269964 3.1380002
1.1660616 -0.65636402 3.108
1.1500788 -0.63925803 3.0270002
1.1410189 -0.62637573 2.9660001
1.1231996 -0.6090585 2.8840001
1.1045998 -0.59174132 2.802
1.094396 -0.57928139 2.743
1.0840343 -0.56703269 2.6850002
1.0772055 -0.55689573 2.6370001
1.0732259 -0.54844832 2.5970001
1.0709555 -0.54105681 2.562
1.0784986 -0.53873384 2.5510001
1.0808066 -0.53387654 2.5280001
1.0911093 -0.53303182 2.5240002
1.103996 -0.53345418 2.526
1.1133674 -0.5321871 2.5200002
1.1235749 -0.53134233 2.516
1.1314876 -0.52944165 2.5070002
1.1379464 -0.52690744 2.4950001
1.1359956 -0.52057189 2.4650002
1.132828 -0.51381391 2.4330001
1.1434669 -0.51339161 2.4310002
1.1526614 -0.51233566 2.4260001
1.1622882 -0.51149094 2.4220002
1.1709076 -0.51022381 2.4160001
1.1780016 -0.50832313 2.4070001
1.1869868 -0.50726724 2.4020002
1.1954253 -0.5060001 2.3960001
1.2048142 -0.50515538 2.3920002
1.2126397 -0.50367707 2.3850002
1.2219379 -0.50283229 2.381
1.2311982 -0.50198758 2.3770001
1.2404206 -0.50114286 2.3730001
1.2511871 -0.50093168 2.3720002
1.2614119 -0.50050926 2.3700001
1.2716178 -0.5000869 2.368
1.2807209 -0.49924216 2.3640001
1.2892396 -0.49818626 2.3590002
1.2971594 -0.49691913 2.3530002
1.305578 -0.49586317 2.348
1.3133883 -0.49459606 2.342
1.3217072 -0.49354017 2.3370001
1.3299782 -0.49248421 2.332
1.3382019 -0.49142832 2.3270001
1.3463778 -0.49037236 2.322
1.3539217 -0.48910528 2.3160002
1.3678912 -0.49016118 2.3210001
1.368838 -0.48657104 2.3040001
1.372617 -0.4840368 2.2920001
1.3817147 -0.48340324 2.289
1.3907839 -0.48276967 2.286
1.3998243 -0.48213613 2.283
1.4100722 -0.48192495 2.2820001
1.414084 -0.47960192 2.2710001
1.4248924 -0.47960192 2.2710001
1.4369655 -0.48002428 2.273
1.4547901 -0.48234734 2.2840002
1.4663022 -0.48255852 2.2850001
1.476531 -0.48234734 2.2840002
1.4867502 -0.48213613 2.283
1.4943361 -0.48108023 2.2780001
1.5018742 -0.48002428 2.273
1.498717 -0.47558939 2.2520001
1.5141268 -0.47706768 2.2590001
1.5026026 -0.47009858 2.2260001
1.5131971 -0.47009858 2.2260001
1.5032552 -0.46376303 2.1960001
1.5109497 -0.46291828 2.1920002
1.5186062 -0.46207356 2.1880002
1.5269233 -0.46144 2.1850002
1.5345081 -0.46059522 2.181
1.5420551 -0.45975047 2.177
1.5495639 -0.45890576 2.1730001
1.5577526 -0.45827219 2.1700001
1.5572414 -0.45510444 2.1550002
1.5733168 -0.4567939 2.1630001
1.5726293 -0.4536261 2.148
1.5813789 -0.45320377 2.1460001
1.5901092 -0.45278138 2.1440001
1.5995669 -0.4525702 2.1430001
1.6097665 -0.4525702 2.1430001
1.6199659 -0.4525702 2.1430001
1.6316867 -0.45299259 2.1450002
1.6441919 -0.4536261 2.148
1.6567258 -0.45425966 2.151
1.675488 -0.45658273 2.1620002
1.6982536 -0.45996171 2.1780002
1.7368611 -0.46756434 2.214
1.8018565 -0.48213613 2.283
1.8818012 -0.50050926 2.3700001
1.9673665 -0.52014947 2.4630001
2.0353358 -0.53493249 2.5330002
2.0490079 -0.53535485 2.5350001
2.0683906 -0.53725553 2.5440001
2.0813162 -0.5374667 2.5450001
2.0934289 -0.5374667 2.5450001
2.1138148 -0.53957856 2.5550001
2.1218147 -0.53852266 2.5500002
2.1306038 -0.53767788 2.546
2.1292558 -0.53429896 2.5300002
2.1269088 -0.53070873 2.513
2.1295068 -0.52838576 2.5020001
2.1388474 -0.52775216 2.4990001
2.148159 -0.52711862 2.4960001
2.1574423 -0.52648503 2.493
2.1719182 -0.52711862 2.4960001
2.1846726 -0.5273298 2.4970002
2.2062333 -0.52965283 2.5080001
2.2146323 -0.52880812 2.5040002
2.2301066 -0.52965283 2.5080001
2.242043 -0.52965283 2.5080001
2.250385 -0.52880812 2.5040002
2.2496536 -0.52585149 2.49
0 -0 0
0 -0 0
0 -0 0
0 -0 0
0 -0 0
0 -0 0
0 -0 0
0 -0 0
0 -0 0
0 -0 0
0 -0 0
0 -0 0
0 -0 0
0 -0 0
0 -0 0
0 -0 0
0 -0 0
0 -0 0
-0 -0 0
-0 -0 0
-0 -0 0
-0 -0 0
-0 -0 0
-0 -0 0
-0 -0 0
-0 -0 0
-2.9304247 -0.61349785 2.9720001
-2.9192235 -0.61411715 2.9750001
-2.9167821 -0.61659425 2.9870002
-2.902566 -0.61659425 2.9870002
-2.8854485 -0.61597496 2.9840002
-2.8587377 -0.61329144 2.9710002
-2.8474698 -0.61391073 2.9740002
-2.8361735 -0.61453003 2.9770002
-2.8191607 -0.61391073 2.9740002
-0 -0 0
-0 -0 0
-0 -0 0
-0 -0 0
-0 -0 0
-0 -0 0
-0 -0 0
-3.0125477 -0.68347627 3.3110001
-3.0004096 -0.68430191 3.3150001
-3.0395534 -0.69689393 3.3760002
-3.0243809 -0.69710034 3.3770001
-3.0492861 -0.70659596 3.4230001
-3.0640073 -0.71382087 3.4580002
-3.0634124 -0.71753651 3.4760001
-3.0793009 -0.72517431 3.5130002
-3.1114013 -0.73673415 3.5690002
-3.1438353 -0.74850041 3.6260002
-3.1145058 -0.74561048 3.6120002
-3.1016026 -0.74664259 3.6170001
-3.0818293 -0.7460233 3.6140001
-3.062933 -0.74561048 3.6120002
-3.0398395 -0.74416548 3.6050003
-3.01262 -0.74168837 3.5930002
-2.9946856 -0.74148196 3.5920002
-2.9759319 -0.74106908 3.5900002
-2.9654393 -0.74272054 3.5980003
-2.946676 -0.74230766 3.5960002
-2.9279315 -0.74189478 3.5940001
-2.9116366 -0.74210125 3.5950003
-2.892916 -0.74168837 3.5930002
-2.9054298 -0.74932611 3.6300001
-2.8897448 -0.74973899 3.6320002
-2.8732493 -0.7499454 3.6330001
-2.8881891 -0.7584089 3.6740003
-2.8699217 -0.75820243 3.6730001
-2.8539937 -0.75861531 3.6750002
-2.8503957 -0.76233095 3.6930001
-2.8343534 -0.76274383 3.6950002
-2.8175297 -0.76295024 3.6960001
-2.821908 -0.76893657 3.7250001
-2.8071907 -0.76976228 3.7290001
-2.7871985 -0.76914299 3.7260001
-2.769465 -0.76914299 3.7260001
-2.7768414 -0.77616149 3.7600002
-2.7589459 -0.77616149 3.7600002
-2.7410505 -0.77616149 3.7600002
-2.723155 -0.77616149 3.7600002
-2.6829555 -0.76976228 3.7290001
-2.6666372 -0.77017516 3.7310002
-2.6197712 -0.76171166 3.6900001
-2.6007986 -0.76129884 3.6880002
-2.5804441 -0.76047313 3.6840003
-2.5608234 -0.75985384 3.6810002
-2.5391586 -0.75861531 3.6750002
-2.5175505 -0.75737673 3.6690001
-2.4973629 -0.75655103 3.6650002
-2.4792428 -0.75634462 3.6640003
-2.4624763 -0.75655103 3.6650002
-2.4457002 -0.75675744 3.6660001
-2.4494481 -0.76336306 3.6980002
-2.4318476 -0.76336306 3.6980002
-2.4351387 -0.76996875 3.7300003
-2.4180341 -0.77017516 3.7310002
-2.4189334 -0.77616149 3.7600002
-2.4144483 -0.78049642 3.7810001
-2.4103968 -0.78503782 3.8030002
-2.4055066 -0.78937274 3.8240001
-2.4010415 -0.79391414 3.8460002
-2.3827367 -0.79391414 3.8460002
-2.3644319 -0.79391414 3.8460002
-2.3595479 -0.79845554 3.8680003
-2.3550591 -0.80320328 3.8910003
-2.3365402 -0.80320328 3.8910003
-2.3311276 -0.80774462 3.9130001
-2.3260965 -0.81249243 3.9360001
-2.3208466 -0.81724024 3.9590001
-2.3020041 -0.81724024 3.9590001
-2.2831616 -0.81724024 3.9590001
-2.2643189 -0.81724024 3.9590001
-2.2454765 -0.81724024 3.9590001
-2.2136984 -0.81249243 3.9360001
-2.1949651 -0.81249243 3.9360001
-2.1635153 -0.80774462 3.9130001
-2.1328328 -0.80320328 3.8910003
-2.1143138 -0.80320328 3.8910003
-2.0957949 -0.80320328 3.8910003
-2.0772762 -0.80320328 3.8910003
-2.0703976 -0.80774462 3.9130001
-2.0517738 -0.80774462 3.9130001
-2.0451009 -0.81249243 3.9360001
-2.038209 -0.81724024 3.9590001
-2.0316081 -0.82219452 3.9830003
-2.0242736 -0.82694227 4.006
-2.0172205 -0.83189648 4.0300002
-2.0104351 -0.83705717 4.0550003
-2.0029202 -0.84201133 4.079
-1.9956634 -0.84717202 4.1040001
-1.9881687 -0.85233265 4.1290002
-1.9809127 -0.85769975 4.1550002
-1.9729372 -0.86286038 4.1800003
-1.9656583 -0.86843389 4.2070003
-1.9456353 -0.86843389 4.2070003
-1.9375131 -0.87380099 4.2330003
-1.9173666 -0.87380099 4.2330003
-1.9093213 -0.87937444 4.2600002
-1.8770734 -0.87380099 4.2330003
-1.8569268 -0.87380099 4.2330003
-1.8367802 -0.87380099 4.2330003
-1.8166336 -0.87380099 4.2330003
-1.8079458 -0.87937444 4.2600002
-1.8103312 -0.89052147 4.3140001
-1.8134476 -0.90228778 4.3710003
-1.8160211 -0.91405398 4.428
-1.8067019 -0.92004037 4.4570003
-1.8219442 -0.93882513 4.5480003
-1.8125695 -0.94522429 4.579
-1.8154144 -0.95822918 4.6420002
-1.8184325 -0.97164685 4.7070003
-1.8086216 -0.97845894 4.7400002
-1.7984965 -0.98527098 4.7730002
-1.7888014 -0.99249583 4.8080001
-1.7784059 -0.99951428 4.842
-1.7680495 -1.0067393 4.8770003
-1.7448379 -1.0067393 4.8770003
-1.7343343 -1.0141705 4.9130001
-1.7109514 -1.0141705 4.9130001
-1.6999342 -1.0216019 4.9490004
-1.6763798 -1.0216019 4.9490004
-1.6651824 -1.0292397 4.9860001
-1.641452 -1.0292397 4.9860001
-1.6297263 -1.0368774 5.0230002
-1.6179682 -1.0447216 5.0610003
-1.5938809 -1.0447216 5.0610003
-1.58158 -1.0525658 5.0990005
-1.5573119 -1.0525658 5.0990005
-1.5330436 -1.0525658 5.0990005
-1.5087754 -1.0525658 5.0990005
-1.4734439 -1.0447216 5.0610003
-0 -0 0
-0 -0 0
-0 -0 0
-0 -0 0
-0 -0 0
-0 -0 0
-0.69405425 -0.55569863 2.6920002
-0.67466223 -0.55033153 2.6660001
-0.65303481 -0.5429002 2.6300001
-0.63881272 -0.54145521 2.6230001
-0.62489605 -0.54021662 2.6170001
-0.61173862 -0.53959739 2.6140001
-0.59883904 -0.53918457 2.6120002
-0.58640742 -0.53918457 2.6120002
-0.57441533 -0.53959739 2.6140001
-0.56240422 -0.54001021 2.6160002
-0.55226606 -0.54228091 2.6270001
-0.54058492 -0.54310662 2.631
-0.52886581 -0.54393232 2.6350002
-0.5175004 -0.54517084 2.641
-0.50703388 -0.5474416 2.6520002
-0.49403909 -0.54702872 2.6500001
-0.48760343 -0.55404717 2.684
-0.47553682 -0.55487293 2.6880002
-0.46326002 -0.55549222 2.6910002
-0.45095462 -0.55611145 2.6940002
-0.438458 -0.55652428 2.6960001
-0.42562664 -0.55652428 2.6960001
-0.41264215 -0.55631787 2.6950002
-0.39937046 -0.55569863 2.6920002
-0.38655812 -0.55569863 2.6920002
-0.37319046 -0.55487293 2.6880002
-0.36173791 -0.55693716 2.6980002
-0.34540546 -0.55136371 2.6710002
-0.33219483 -0.55053794 2.6670001
-0.31890252 -0.54950583 2.6620002
