# .PCD v0.7 - Point Cloud Data file format
VERSION 0.7
FIELDS x y z
SIZE 4 4 4
TYPE F F F
COUNT 1 1 1
WIDTH 1660
HEIGHT 1
VIEWPOINT 0 0 0 1 0 0 0
POINTS 1660
DATA ascii
-2.0142643 -0.18036222 3.0630002
-1.9944634 -0.17989114 3.0550001
-1.9818677 -0.18006779 3.0580001
-1.9692434 -0.18024445 3.0610001
-1.9559522 -0.18036222 3.0630002
-1.9432755 -0.18053888 3.0660002
-1.9318283 -0.18083329 3.0710001
-1.9190851 -0.18100995 3.0740001
-1.9056938 -0.18112771 3.0760002
-1.8898242 -0.18100995 3.0740001
-1.8751938 -0.18100995 3.0740001
-1.8599581 -0.18095106 3.0730002
-1.8447318 -0.18089217 3.072
-1.830111 -0.18089217 3.072
-1.8131261 -0.18065664 3.0680001
-1.7985241 -0.18065664 3.0680001
-1.7862482 -0.18089217 3.072
-1.7733574 -0.18106882 3.075
-1.7615819 -0.18136325 3.0800002
-1.7679086 -0.18354197 3.1170001
-1.7553233 -0.1837775 3.1210001
-1.7521801 -0.18501407 3.1420002
-1.7449666 -0.18583845 3.1560001
-1.729398 -0.18577957 3.1550002
-1.7078613 -0.18507296 3.1430001
-1.702059 -0.18607399 3.1600001
-1.680613 -0.18536738 3.1480002
-1.658752 -0.18460189 3.1350002
-1.6343929 -0.18354197 3.1170001
-1.6226754 -0.18389527 3.1230001
-1.6072969 -0.18383639 3.1220002
-1.592438 -0.18383639 3.1220002
-1.5775793 -0.18383639 3.1220002
-1.5632209 -0.18389527 3.1230001
-1.5602561 -0.18530849 3.1470001
-1.5433141 -0.18507296 3.1430001
-1.5283554 -0.18507296 3.1430001
-1.5312124 -0.18725166 3.1800001
-1.5165544 -0.18731056 3.1810002
-1.5127425 -0.18872377 3.2050002
-1.4970214 -0.1886649 3.2040002
-1.4771475 -0.18807605 3.1940002
-1.4665231 -0.1886649 3.2040002
-1.4530858 -0.18890043 3.2080002
-1.4203378 -0.18660395 3.1690001
-1.3897349 -0.184543 3.1340001
-1.3629746 -0.18295312 3.1070001
-1.3360374 -0.18130438 3.0790002
-1.3230999 -0.18153991 3.0830002
-1.2927238 -0.17936119 3.0460002
-1.2757087 -0.17900789 3.0400002
-1.2633145 -0.1793023 3.0450001
-1.2492323 -0.17936119 3.0460002
-1.248112 -0.18130438 3.0790002
-1.2514849 -0.18395415 3.1240001
-1.2568046 -0.18695726 3.1750002
-1.2557725 -0.18907708 3.2110002
-1.258261 -0.19178575 3.2570002
-1.2690877 -0.19584876 3.3260002
-1.2562722 -0.19631983 3.3340001
-1.2582626 -0.19914627 3.3820002
-1.2528176 -0.20085391 3.4110003
-1.2380334 -0.20108946 3.4150002
-1.2328708 -0.20291485 3.4460001
-1.2175288 -0.2030915 3.4490001
-1.2018102 -0.20320928 3.4510002
-1.1905378 -0.20409253 3.4660001
-1.1750579 -0.20426919 3.4690001
-1.1572117 -0.20403366 3.4650002
-1.1413788 -0.20415144 3.4670002
-1.1255267 -0.20426919 3.4690001
-1.1099753 -0.20444584 3.4720001
-1.0940807 -0.20456362 3.4740002
-1.0890228 -0.20674233 3.5110002
-1.0723126 -0.20674233 3.5110002
-1.055903 -0.20680121 3.5120001
-1.0513196 -0.20921546 3.5530002
-1.0329537 -0.20892105 3.5480001
-1.0169265 -0.2090977 3.5510001
-1.0008706 -0.20927435 3.5540001
-0.98893923 -0.21033427 3.5720003
-0.9724828 -0.21045204 3.5740001
-0.95547259 -0.21045204 3.5740001
-0.92953473 -0.20844997 3.5400002
-0.91191298 -0.20827332 3.5370002
-0.88748705 -0.20650679 3.5070002
-0.86980265 -0.20627126 3.5030003
-0 -0 0
-0 -0 0
-0 -0 0
-0 -0 0
-0 -0 0
-0 -0 0
-0 -0 0
-0 -0 0
-0 -0 0
-0 -0 0
-0 -0 0
-0 -0 0
-0 -0 0
-0 -0 0
-0.14966671 -0.049816009 0.84600002
-0.14546812 -0.049757127 0.84500003
-0.14127901 -0.049698241 0.84400004
-0.13709944 -0.049639359 0.84300005
-0.13277151 -0.049521588 0.84100002
-0.12846263 -0.04940382 0.83900005
-0.12417275 -0.049286053 0.83700001
-0.11990194 -0.049168285 0.83500004
-0.11565017 -0.049050517 0.83300006
-0.11155149 -0.048991632 0.83200002
-0.10746235 -0.048932746 0.83100003
-0.10325816 -0.048814978 0.82900006
-0.09919282 -0.048756097 0.82800007
-0.095136985 -0.048697211 0.82700002
-0.091090672 -0.048638325 0.82600003
-0.08705388 -0.048579443 0.82500005
-0.08302661 -0.048520561 0.82400006
-0.078912839 -0.04840279 0.82200003
-0.074909367 -0.048343904 0.82100004
-0.070915408 -0.048285022 0.82000005
-0.066930972 -0.04822614 0.81900007
-0.062956043 -0.048167251 0.81800002
-0.058990642 -0.048108369 0.81700003
-0.055102203 -0.048108369 0.81700003
-0.051151078 -0.048049483 0.81600004
-0.047209475 -0.047990602 0.81500006
-0.043277383 -0.047931716 0.81400001
-0.03935482 -0.04787283 0.81300002
-0.035441771 -0.047813948 0.81200004
-0.031577125 -0.047813948 0.81200004
-0.027678356 -0.047755066 0.81100005
-0.023789104 -0.047696181 0.81000006
-0.019909371 -0.047637295 0.80900002
-0.016039155 -0.047578409 0.80800003
-0.012178461 -0.047519527 0.80700004
-0.0083272848 -0.047460645 0.80600005
-0.0044856267 -0.04740176 0.80500007
-0.00065348722 -0.047342874 0.80400002
0.0031691331 -0.047283992 0.80300003
0.0069822348 -0.047225107 0.80200005
0.010785817 -0.047166225 0.80100006
0.01457988 -0.047107335 0.80000001
0.018364426 -0.047048453 0.79900002
0.022139452 -0.046989571 0.79800004
0.025904959 -0.046930686 0.79700005
0.029660949 -0.046871804 0.79600006
0.033407416 -0.046812914 0.79500002
0.03714437 -0.046754032 0.79400003
0.040871799 -0.04669515 0.79300004
0.044589713 -0.046636265 0.79200006
0.048298106 -0.046577379 0.79100001
0.051996984 -0.046518497 0.79000002
0.05568634 -0.046459612 0.78900003
0.059366181 -0.04640073 0.78800005
0.063036501 -0.046341844 0.78700006
0.066697292 -0.046282958 0.78600001
0.070348583 -0.046224076 0.78500003
0.073990345 -0.046165191 0.78400004
0.077721722 -0.046165191 0.78400004
0.081349209 -0.046106309 0.78300005
0.084967174 -0.046047423 0.78200006
0.088575616 -0.045988537 0.78100002
0.092292719 -0.045988537 0.78100002
0.095886886 -0.045929655 0.78000003
0.099599227 -0.045929655 0.78000003
0.10317913 -0.04587077 0.77900004
0.10674949 -0.045811888 0.77800006
0.11031034 -0.045753002 0.77700001
0.1140084 -0.045753002 0.77700001
0.11755497 -0.045694117 0.77600002
0.12109204 -0.045635235 0.77500004
0.12461958 -0.045576349 0.77400005
0.12813759 -0.045517467 0.77300006
0.13164608 -0.045458581 0.77200001
0.13514507 -0.045399696 0.77100003
0.13863453 -0.045340814 0.77000004
0.14211448 -0.045281928 0.76900005
0.1455849 -0.045223042 0.76800001
0.14904581 -0.04516416 0.76700002
0.15249719 -0.045105275 0.76600003
0.15593906 -0.045046393 0.76500005
0.15937142 -0.044987511 0.76400006
0.16279423 -0.044928622 0.76300001
0.16620754 -0.04486974 0.76200002
0.16961133 -0.044810854 0.76100004
0.17300561 -0.044751972 0.76000005
0.17639036 -0.04469309 0.75900006
0.1797656 -0.044634201 0.75800002
0.18313131 -0.044575319 0.75700003
0.18673418 -0.044575319 0.75700003
0.19033706 -0.044575319 0.75700003
0.19368376 -0.044516437 0.75600004
0.19728187 -0.044516437 0.75600004
0.20061426 -0.044457551 0.75500005
0.20420763 -0.044457551 0.75500005
0.20780097 -0.044457551 0.75500005
0.21111435 -0.044398665 0.75400001
0.21470293 -0.044398665 0.75400001
0.21829152 -0.044398665 0.75400001
0.22158585 -0.04433978 0.75300002
0.22516969 -0.04433978 0.75300002
0.22875352 -0.04433978 0.75300002
0.23233737 -0.04433978 0.75300002
0.2359212 -0.04433978 0.75300002
0.23950502 -0.04433978 0.75300002
0.2434117 -0.044398665 0.75400001
0.24732789 -0.044457551 0.75500005
0.25092125 -0.044457551 0.75500005
0.2545146 -0.044457551 0.75500005
0.25810796 -0.044457551 0.75500005
0.26170132 -0.044457551 0.75500005
0 -0 0
0 -0 0
0 -0 0
0 -0 0
0 -0 0
0 -0 0
1.8803238 -0.29141778 4.9490004
1.8900288 -0.28929794 4.9130001
1.9134117 -0.28929794 4.9130001
1.9367949 -0.28929794 4.9130001
1.9601778 -0.28929794 4.9130001
1.9835607 -0.28929794 4.9130001
2.0216498 -0.29141778 4.9490004
2.0452039 -0.29141778 4.9490004
2.0842249 -0.29359648 4.9860001
2.1079552 -0.29359648 4.9860001
2.1475046 -0.2957752 5.0230002
2.171411 -0.2957752 5.0230002
2.2119257 -0.29801279 5.0610003
2.2360129 -0.29801279 5.0610003
2.2770703 -0.30025041 5.0990005
2.3013384 -0.30025041 5.0990005
2.3256066 -0.30025041 5.0990005
2.349875 -0.30025041 5.0990005
0 -0 0
0 -0 0
0 -0 0
0 -0 0
0 -0 0
0 -0 0
1.1439943 -0.13631685 2.3150001
1.1495242 -0.13566914 2.3040001
1.1524309 -0.13472699 2.2880001
1.1623036 -0.13460921 2.286
1.1757495 -0.13490364 2.2910001
1.1850995 -0.13472699 2.2880001
1.1902392 -0.13407926 2.2770002
1.1989663 -0.13384372 2.273
1.2097844 -0.13384372 2.273
1.2206026 -0.13384372 2.273
1.2303373 -0.13372596 2.2710001
1.2422389 -0.13384372 2.273
1.2547109 -0.13402037 2.276
1.2672113 -0.13419703 2.279
1.2803012 -0.13443255 2.283
1.3092649 -0.13631685 2.3150001
1.3225641 -0.13655239 2.319
1.3387769 -0.13708235 2.3280001
1.3579745 -0.13790673 2.342
1.369121 -0.13790673 2.342
1.3531573 -0.13519806 2.296
0 -0 0
0 -0 0
0 -0 0
0 -0 0
0 -0 0
3.4949028 -0.33304888 5.6560001
3.5517106 -0.33587533 5.7040005
3.6403458 -0.34164596 5.802
3.7002017 -0.34464905 5.8530002
3.7605431 -0.34765217 5.9040003
3.8560219 -0.35383499 6.0090003
3.8846214 -0.35383499 6.0090003
3.949038 -0.35707361 6.0640001
3.9778988 -0.35707361 6.0640001
4.0067601 -0.35707361 6.0640001
4.0356212 -0.35707361 6.0640001
4.0644822 -0.35707361 6.0640001
4.1304698 -0.36031225 6.1190004
4.1595926 -0.36031225 6.1190004
4.1887155 -0.36031225 6.1190004
4.1799264 -0.35707361 6.0640001
4.2087879 -0.35707361 6.0640001
0 -0 0
0 -0 0
0 -0 0
0 -0 0
0 -0 0
0 -0 0
2.2192276 -0.17965561 3.0510001
2.2293558 -0.1793023 3.0450001
2.2092142 -0.17653476 2.9980001
2.2205164 -0.17629921 2.9940002
2.2429764 -0.17694694 3.0050001
2.2324898 -0.17500377 2.9720001
2.2428553 -0.17470935 2.9670002
2.255455 -0.17459157 2.9650002
2.2688012 -0.1745327 2.9640002
2.272125 -0.1737083 2.95
2.2784154 -0.17311946 2.9400001
2.290849 -0.17300171 2.9380002
2.3056166 -0.17306058 2.9390001
2.321183 -0.17317836 2.9410002
0 -0 0
0 -0 0
0 -0 0
0 -0 0
0 -0 0
0 -0 0
0 -0 0
0 -0 0
0 -0 0
6.1223483 -0.43079662 7.3160005
6.0906816 -0.42614478 7.2370005
6.0599551 -0.42161068 7.1600003
6.0940328 -0.42161068 7.1600003
6.1281104 -0.42161068 7.1600003
6.1621871 -0.42161068 7.1600003
6.1962647 -0.42161068 7.1600003
6.2303424 -0.42161068 7.1600003
6.2644196 -0.42161068 7.1600003
6.3662324 -0.42614478 7.2370005
6.4006763 -0.42614478 7.2370005
6.4351201 -0.42614478 7.2370005
6.469564 -0.42614478 7.2370005
6.5040078 -0.42614478 7.2370005
0 -0 0
0 -0 0
0 -0 0
0 -0 0
0 -0 0
0 -0 0
0 -0 0
0 -0 0
0 -0 0
0 -0 0
0 -0 0
0 -0 0
0 -0 0
0 -0 0
0 -0 0
0 -0 0
0 -0 0
0 -0 0
0 -0 0
-0 -0 0
-0 -0 0
-0 -0 0
-0 -0 0
-0 -0 0
-0 -0 0
-0 -0 0
-2.865308 -0.15652882 2.8920002
-2.8495717 -0.15642056 2.8900001
-2.8397419 -0.15663706 2.8940001
-2.8220623 -0.15642056 2.8900001
-2.8015056 -0.1560417 2.8830001
-2.7839162 -0.1558252 2.8790002
-2.7577052 -0.15512158 2.8660002
-2.7421498 -0.15501332 2.8640001
-2.7256606 -0.15485094 2.8610001
-2.7092001 -0.15468857 2.858
-2.6937115 -0.15458032 2.8560002
-2.681057 -0.15463445 2.8570001
-2.6702604 -0.15479682 2.8600001
-2.6594353 -0.1549592 2.8630002
-2.6485815 -0.15512158 2.8660002
-2.6386182 -0.15533808 2.8700001
-2.6341052 -0.15587932 2.8800001
-2.6240373 -0.15609582 2.8840001
-2.6103113 -0.15609582 2.8840001
-2.5992861 -0.1562582 2.8870001
-2.6052487 -0.15744893 2.9090002
-2.5958574 -0.15771955 2.914
-2.600596 -0.15885618 2.9350002
-2.5927963 -0.15923506 2.9420002
-2.578794 -0.15923506 2.9420002
-2.5674074 -0.15939744 2.9450002
-2.5568588 -0.15961392 2.9490001
-2.5445478 -0.15972218 2.9510002
-2.5296452 -0.15966804 2.95
-2.5147524 -0.15961392 2.9490001
-2.4879971 -0.15880206 2.9340003
-2.4731896 -0.15874793 2.9330001
-2.4592302 -0.15874793 2.9330001
-2.4469383 -0.15885618 2.9350002
-2.4271667 -0.15847731 2.9280002
-2.4181764 -0.15880206 2.9340003
-2.3992958 -0.15847731 2.9280002
-2.3861747 -0.15853143 2.9290001
-2.3730445 -0.15858555 2.9300001
-2.3607097 -0.15869381 2.9320002
-2.3507569 -0.15896443 2.937
-2.335983 -0.1589103 2.9360001
-2.3488989 -0.16075054 2.97
-2.3355498 -0.16080467 2.9710002
-2.3237538 -0.16096705 2.9740002
-2.3111522 -0.16107529 2.9760001
-2.3139687 -0.16226605 2.9980001
-2.2981658 -0.16215779 2.9960001
-2.2846692 -0.16221192 2.9970002
-2.2711625 -0.16226605 2.9980001
-2.2855005 -0.16432279 3.0360003
-2.2725468 -0.16443104 3.0380001
-2.2580876 -0.16443104 3.0380001
-2.2428901 -0.16437691 3.0370002
-2.2277021 -0.16432279 3.0360003
-2.2096074 -0.16405216 3.0310001
-2.1959059 -0.16410628 3.0320001
-2.1800363 -0.16399804 3.0300002
-2.1641858 -0.16388978 3.0280001
-2.1497746 -0.16388978 3.0280001
-2.1346576 -0.16383566 3.0270002
-2.1202509 -0.16383566 3.0270002
-2.1051486 -0.16378154 3.0260003
-2.0831463 -0.16318616 3.0150001
-2.0708551 -0.16334854 3.0180001
-2.0639868 -0.1639439 3.029
-2.0509238 -0.16405216 3.0310001
-2.0391855 -0.16426866 3.0350001
-2.0280766 -0.16453929 3.0400002
-2.0149326 -0.16464753 3.0420001
-2.0136065 -0.16573001 3.062
-1.9944634 -0.16535115 3.0550001
-1.9799234 -0.16535115 3.0550001
-1.9692434 -0.16567589 3.0610001
-1.9559522 -0.16578415 3.0630002
-1.9439092 -0.16600065 3.0670002
-1.9324572 -0.16627127 3.072
-1.9197093 -0.16643365 3.075
-1.9056938 -0.16648778 3.0760002
-1.8898242 -0.16637953 3.0740001
-1.8745838 -0.16632541 3.0730002
-1.8599581 -0.16632541 3.0730002
-1.8447318 -0.16627127 3.072
-1.8289195 -0.16616303 3.0700002
-1.8125352 -0.16600065 3.0670002
-1.7985241 -0.16605477 3.0680001
-1.7850854 -0.16616303 3.0700002
-1.772204 -0.16632541 3.0730002
-1.760438 -0.16659603 3.0780001
-1.7679086 -0.16870689 3.1170001
-1.7547609 -0.16886926 3.1200001
-1.7583144 -0.17065538 3.1530001
-1.7449666 -0.17081775 3.1560001
-1.7321386 -0.17103425 3.1600001
-1.7170988 -0.17103425 3.1600001
-1.7031363 -0.1711425 3.1620002
-1.6822147 -0.17054714 3.1510003
-1.6677468 -0.17060126 3.1520002
-1.6548424 -0.17081775 3.1560001
-1.6403414 -0.17087187 3.1570001
-1.624801 -0.17081775 3.1560001
-1.6108005 -0.170926 3.1580002
-1.5977917 -0.1711425 3.1620002
-1.585245 -0.17141312 3.1670001
-1.5731467 -0.17173788 3.1730001
-1.5605003 -0.1720085 3.1780002
-1.54732 -0.172225 3.1820002
-1.5316941 -0.17217088 3.1810002
-1.5170311 -0.172225 3.1820002
-1.5287902 -0.17531011 3.2390001
-1.5138419 -0.17536424 3.2400002
-1.4988837 -0.17541836 3.2410002
-1.4834585 -0.17541836 3.2410002
-1.4666744 -0.17525598 3.2380002
-1.4333355 -0.17309099 3.1980002
-1.39683 -0.17049301 3.1500001
-1.3730643 -0.16941051 3.1300001
-1.3364713 -0.16670427 3.0800002
-1.323958 -0.16697489 3.085
-1.3080022 -0.16681252 3.0820003
-1.2853605 -0.16578415 3.0630002
-1.2670485 -0.16529703 3.0540001
-1.2660472 -0.16708314 3.0870001
-1.261489 -0.16843627 3.1120002
-1.2643043 -0.17081775 3.1560001
-1.2698674 -0.17363225 3.2080002
-1.2655495 -0.17514773 3.2360001
-1.2702371 -0.17796221 3.2880001
-1.2690877 -0.18001896 3.3260002
-1.2687068 -0.18223807 3.3670001
-1.2671918 -0.18434894 3.4060001
-1.2520829 -0.18451132 3.4090002
-1.2470965 -0.18618919 3.4400001
-1.2325131 -0.18645981 3.4450002
-1.2171758 -0.18662219 3.4480002
-1.2014619 -0.18673043 3.45
-1.1901944 -0.1875423 3.4650002
-1.1713319 -0.18716343 3.4580002
-1.1575456 -0.18759643 3.4660001
-1.1417079 -0.18770468 3.4680002
-1.1258512 -0.18781294 3.4700003
-1.1102951 -0.1879753 3.473
-1.0943955 -0.18808356 3.4750001
-1.0778565 -0.18808356 3.4750001
-1.0726179 -0.19008617 3.5120001
-1.0565042 -0.19019443 3.5140002
-1.0498401 -0.19203466 3.5480001
-1.0320803 -0.19187228 3.5450001
-1.015781 -0.19198054 3.5470002
-0.99974418 -0.19214292 3.5500002
-0.97952598 -0.19149341 3.5380001
-0.9624151 -0.19143929 3.5370002
-0.94531369 -0.19138516 3.5360003
-0.92953473 -0.19160166 3.5400002
-0.9031471 -0.18959905 3.5030003
-0.88723403 -0.18976143 3.5060003
-0.85465616 -0.18629743 3.4420002
-0.83803076 -0.18624331 3.4410002
-0 -0 0
-0 -0 0
-0 -0 0
-0 -0 0
-0 -0 0
-0 -0 0
-0 -0 0
-0 -0 0
-0 -0 0
-0 -0 0
-0 -0 0
-0 -0 0
-0 -0 0
-0.14966671 -0.045789547 0.84600002
-0.14546812 -0.045735426 0.84500003
-0.14127901 -0.045681302 0.84400004
-0.13709944 -0.045627177 0.84300005
-0.13277151 -0.045518927 0.84100002
-0.12846263 -0.045410678 0.83900005
-0.12432112 -0.045356553 0.83800006
-0.12004554 -0.045248304 0.83600003
-0.115789 -0.045140054 0.83400005
-0.11155149 -0.045031801 0.83200002
-0.10746235 -0.04497768 0.83100003
-0.10338272 -0.044923555 0.83000004
-0.09919282 -0.044815306 0.82800007
-0.095136985 -0.044761177 0.82700002
-0.091090672 -0.044707056 0.82600003
-0.08705388 -0.044652931 0.82500005
-0.08302661 -0.044598807 0.82400006
-0.078912839 -0.044490553 0.82200003
-0.074909367 -0.044436432 0.82100004
-0.070915408 -0.044382308 0.82000005
-0.066930972 -0.044328183 0.81900007
-0.062956043 -0.044274054 0.81800002
-0.058990642 -0.044219933 0.81700003
-0.055102203 -0.044219933 0.81700003
-0.051151078 -0.044165809 0.81600004
-0.047209475 -0.044111684 0.81500006
-0.043277383 -0.044057555 0.81400001
-0.03935482 -0.044003431 0.81300002
-0.035441771 -0.04394931 0.81200004
-0.031577125 -0.04394931 0.81200004
-0.027678356 -0.043895185 0.81100005
-0.023789104 -0.04384106 0.81000006
-0.019909371 -0.043786932 0.80900002
-0.016039155 -0.043732807 0.80800003
-0.012178461 -0.043678686 0.80700004
-0.0083272848 -0.043624561 0.80600005
-0.0044856267 -0.043570437 0.80500007
-0.00065348722 -0.043516308 0.80400002
0.0031691331 -0.043462183 0.80300003
0.0069822348 -0.043408062 0.80200005
0.010785817 -0.043353938 0.80100006
0.01457988 -0.043299809 0.80000001
0.018364426 -0.043245684 0.79900002
0.022139452 -0.043191563 0.79800004
0.025904959 -0.043137439 0.79700005
0.029660949 -0.043083314 0.79600006
0.033407416 -0.043029185 0.79500002
0.03714437 -0.042975061 0.79400003
0.040871799 -0.04292094 0.79300004
0.044589713 -0.042866815 0.79200006
0.048298106 -0.042812686 0.79100001
0.051996984 -0.042758562 0.79000002
0.05568634 -0.042704437 0.78900003
0.059366181 -0.042650316 0.78800005
0.063036501 -0.042596191 0.78700006
0.066697292 -0.042542063 0.78600001
0.070348583 -0.042487938 0.78500003
0.073990345 -0.042433813 0.78400004
0.077721722 -0.042433813 0.78400004
0.081349209 -0.042379692 0.78300005
0.084967174 -0.042325567 0.78200006
0.088575616 -0.042271439 0.78100002
0.092292719 -0.042271439 0.78100002
0.095886886 -0.042217314 0.78000003
0.099599227 -0.042217314 0.78000003
0.10317913 -0.042163193 0.77900004
0.10674949 -0.042109068 0.77800006
0.11045232 -0.042109068 0.77800006
0.1140084 -0.04205494 0.77700001
0.11755497 -0.042000815 0.77600002
0.12109204 -0.041946691 0.77500004
0.12461958 -0.04189257 0.77400005
0.12813759 -0.041838445 0.77300006
0.13164608 -0.041784316 0.77200001
0.13514507 -0.041730192 0.77100003
0.13863453 -0.041676067 0.77000004
0.14211448 -0.041621946 0.76900005
0.1455849 -0.041567817 0.76800001
0.14904581 -0.041513693 0.76700002
0.15249719 -0.041459568 0.76600003
0.15593906 -0.041405443 0.76500005
0.15937142 -0.041351322 0.76400006
0.16279423 -0.041297194 0.76300001
0.16620754 -0.041243069 0.76200002
0.16961133 -0.041188944 0.76100004
0.17300561 -0.041134823 0.76000005
0.17639036 -0.041080698 0.75900006
0.1797656 -0.04102657 0.75800002
0.18313131 -0.040972445 0.75700003
0.18673418 -0.040972445 0.75700003
0.19033706 -0.040972445 0.75700003
0.19368376 -0.04091832 0.75600004
0.19728187 -0.04091832 0.75600004
0.20087996 -0.04091832 0.75600004
0.20420763 -0.040864199 0.75500005
0.20780097 -0.040864199 0.75500005
0.21111435 -0.040810071 0.75400001
0.21470293 -0.040810071 0.75400001
0.21829152 -0.040810071 0.75400001
0.22188012 -0.040810071 0.75400001
0.22546871 -0.040810071 0.75400001
0.22905731 -0.040810071 0.75400001
0.23264591 -0.040810071 0.75400001
0.2362345 -0.040810071 0.75400001
0.23982309 -0.040810071 0.75400001
0.24373455 -0.040864199 0.75500005
0.24732789 -0.040864199 0.75500005
0.25092125 -0.040864199 0.75500005
0.2545146 -0.040864199 0.75500005
0.25810796 -0.040864199 0.75500005
0.26170132 -0.040864199 0.75500005
0 -0 0
0 -0 0
0 -0 0
0 -0 0
0 -0 0
0 -0 0
1.8803238 -0.26786345 4.9490004
1.9038781 -0.26786345 4.9490004
1.9134117 -0.26591495 4.9130001
1.9367949 -0.26591495 4.9130001
1.9601778 -0.26591495 4.9130001
1.9835607 -0.26591495 4.9130001
2.0069437 -0.26591495 4.9130001
2.0452039 -0.26786345 4.9490004
2.0687585 -0.26786345 4.9490004
2.1079552 -0.26986605 4.9860001
2.1316857 -0.26986605 4.9860001
2.171411 -0.27186868 5.0230002
2.2119257 -0.27392542 5.0610003
2.2360129 -0.27392542 5.0610003
2.2601004 -0.27392542 5.0610003
2.2841878 -0.27392542 5.0610003
2.3082752 -0.27392542 5.0610003
0 -0 0
0 -0 0
0 -0 0
0 -0 0
0 -0 0
0 -0 0
0 -0 0
1.1276869 -0.12351271 2.2820001
1.1405435 -0.12372921 2.286
1.1504163 -0.12362096 2.2840002
1.1607782 -0.12356683 2.283
1.1736968 -0.12378334 2.2870002
1.1835456 -0.12367509 2.2850001
1.1897163 -0.12318796 2.276
1.1984388 -0.12297146 2.2720001
1.2092522 -0.12297146 2.2720001
1.2195287 -0.12291734 2.2710001
1.2297956 -0.12286322 2.2700002
1.2416924 -0.12297146 2.2720001
1.2536085 -0.12307972 2.2740002
1.2666553 -0.12329622 2.2780001
1.2791797 -0.12345859 2.2810001
1.3098305 -0.12535296 2.3160002
1.3231345 -0.12556946 2.3200002
1.3451029 -0.12659782 2.3390002
1.356815 -0.12665194 2.3400002
1.3398913 -0.12405396 2.2920001
1.3478532 -0.12378334 2.2870002
0 -0 0
0 -0 0
0 -0 0
0 -0 0
0 -0 0
3.4949028 -0.30612966 5.6560001
3.5517106 -0.30872765 5.7040005
3.609602 -0.31137976 5.7530003
3.7002017 -0.31679225 5.8530002
3.7605431 -0.3195526 5.9040003
3.8220115 -0.3223671 5.9560003
3.8846214 -0.32523569 6.0090003
3.949038 -0.32821256 6.0640001
3.9778988 -0.32821256 6.0640001
4.0067601 -0.32821256 6.0640001
4.0356212 -0.32821256 6.0640001
4.0644822 -0.32821256 6.0640001
4.1304698 -0.33118942 6.1190004
4.1595926 -0.33118942 6.1190004
4.1887155 -0.33118942 6.1190004
4.2178383 -0.33118942 6.1190004
4.2087879 -0.32821256 6.0640001
0 -0 0
0 -0 0
0 -0 0
0 -0 0
0 -0 0
0 -0 0
2.2046802 -0.16405216 3.0310001
2.1986063 -0.16253667 3.0030003
2.2025821 -0.16177891 2.9890001
2.2116165 -0.16140005 2.9820001
2.2220769 -0.16112943 2.9770002
2.2272317 -0.16047993 2.9650002
2.2398314 -0.16037168 2.9630001
2.2516513 -0.1602093 2.96
2.263443 -0.16004694 2.9570003
2.2759762 -0.15993868 2.9550002
2.2791905 -0.15918094 2.9410002
2.2916286 -0.15907268 2.9390001
2.3056166 -0.15907268 2.9390001
2.321183 -0.15918094 2.9410002
0 -0 0
0 -0 0
0 -0 0
0 -0 0
0 -0 0
0 -0 0
0 -0 0
0 -0 0
0 -0 0
5.9918003 -0.38753331 7.1600003
5.9627581 -0.38347396 7.0850005
5.933847 -0.37946871 7.0110002
5.9672155 -0.37946871 7.0110002
6.0005836 -0.37946871 7.0110002
6.0339518 -0.37946871 7.0110002
6.1313601 -0.38347396 7.0850005
6.1650805 -0.38347396 7.0850005
6.2644196 -0.38753331 7.1600003
6.2984972 -0.38753331 7.1600003
6.4006763 -0.39170092 7.2370005
6.4351201 -0.39170092 7.2370005
6.5401864 -0.39597678 7.3160005
6.6469035 -0.40030676 7.3960004
0 -0 0
0 -0 0
0 -0 0
0 -0 0
0 -0 0
0 -0 0
0 -0 0
0 -0 0
0 -0 0
0 -0 0
0 -0 0
0 -0 0
0 -0 0
0 -0 0
0 -0 0
0 -0 0
0 -0 0
0 -0 0
0 -0 0
-0 -0 0
-0 -0 0
-0 -0 0
-0 -0 0
-0 -0 0
-0 -0 0
-2.9358175 -0.14557841 2.9490001
-2.865308 -0.1427646 2.8920002
-2.8495717 -0.14266586 2.8900001
-2.8397419 -0.14286332 2.8940001
-2.8230388 -0.14271523 2.891
-2.8015056 -0.14232031 2.8830001
-2.7781146 -0.14182666 2.8730001
-2.7586672 -0.14153045 2.8670001
-2.7431073 -0.14143173 2.8650002
-2.7256606 -0.14123426 2.8610001
-2.7092001 -0.14108618 2.858
-2.6937115 -0.14098744 2.8560002
-2.6801186 -0.14098744 2.8560002
-2.6711938 -0.14123426 2.8610001
-2.6594353 -0.141333 2.8630002
-2.6485815 -0.1414811 2.8660002
-2.6340215 -0.14143173 2.8650002
-2.6368489 -0.14232031 2.8830001
-2.6240373 -0.14236967 2.8840001
-2.6157417 -0.14266586 2.8900001
-2.6010869 -0.1426165 2.8890002
-2.6088309 -0.14380127 2.9130001
-2.5994208 -0.14404809 2.9180002
-2.5970519 -0.14468984 2.9310002
-2.5919149 -0.1451835 2.9410002
-2.578794 -0.14523287 2.9420002
-2.5674074 -0.14538096 2.9450002
-2.5577257 -0.14562778 2.95
-2.5454102 -0.14572652 2.9520001
-2.5202129 -0.14508477 2.9390001
-2.5062249 -0.14508477 2.9390001
-2.4896929 -0.14493667 2.9360001
-2.4748762 -0.14488731 2.9350002
-2.4600689 -0.14483795 2.9340003
-2.447772 -0.14493667 2.9360001
-2.4321406 -0.14483795 2.9340003
-2.4173522 -0.14478858 2.9330001
-2.3992958 -0.14454176 2.9280002
-2.38536 -0.14454176 2.9280002
-2.3730445 -0.14464048 2.9300001
-2.3615148 -0.14478858 2.9330001
-2.3499565 -0.14493667 2.9360001
-2.3367786 -0.14498603 2.937
-2.3204277 -0.14483795 2.9340003
-2.3284748 -0.14622018 2.9620001
-2.3175027 -0.14641763 2.9660001
-2.3064926 -0.14661509 2.97
-2.3155124 -0.14809605 3.0000002
-2.3012342 -0.14809605 3.0000002
-2.2854314 -0.14799732 2.9980001
-2.2726777 -0.14809605 3.0000002
-2.2862532 -0.14992258 3.0370002
-2.2740428 -0.15007067 3.0400002
-2.2603176 -0.15012003 3.0410001
-2.2451057 -0.15007067 3.0400002
-2.2299032 -0.1500213 3.039
-2.2096074 -0.14962637 3.0310001
-2.1973543 -0.14977448 3.0340002
-2.1814752 -0.14967574 3.0320001
-2.1649005 -0.14952764 3.029
-2.1497746 -0.14947829 3.0280001
-2.1339526 -0.14937957 3.0260003
-2.1195505 -0.14937957 3.0260003
-2.0968003 -0.14878717 3.0140002
-2.0838373 -0.14888589 3.016
-2.0715413 -0.14903399 3.0190001
-2.062624 -0.14942892 3.0270002
-2.0502472 -0.14957702 3.0300002
-2.0398576 -0.14987321 3.0360003
-2.0287437 -0.15012003 3.0410001
-2.0242059 -0.15086052 3.0560002
-2.0142643 -0.15120608 3.0630002
-1.9944634 -0.15081115 3.0550001
-1.9812196 -0.15090989 3.0570002
-1.9686 -0.15105797 3.0600002
-1.9559522 -0.15120608 3.0630002
-1.9426415 -0.1513048 3.0650001
-1.9337153 -0.15174909 3.0740001
-1.920958 -0.15189719 3.0770001
-1.9069327 -0.15194654 3.0780001
-1.8928981 -0.15199593 3.0790002
-1.8751938 -0.15174909 3.0740001
-1.8605633 -0.15174909 3.0740001
-1.8453324 -0.15169972 3.0730002
-1.8295153 -0.15160099 3.0710001
-1.8131261 -0.1514529 3.0680001
-1.7985241 -0.1514529 3.0680001
-1.7839224 -0.1514529 3.0680001
-1.7710506 -0.15160099 3.0710001
-1.7804559 -0.15367433 3.1130002
-1.7673415 -0.15382244 3.1160002
-1.7688216 -0.15525404 3.1450002
-1.7566414 -0.15550086 3.1500001
-1.7433079 -0.15564895 3.1530001
-1.7326869 -0.15604389 3.1610003
-1.7176423 -0.15604389 3.1610003
-1.7036749 -0.15614261 3.1630001
-1.6832824 -0.15564895 3.1530001
-1.6688049 -0.15569831 3.154
-1.6558912 -0.15589578 3.1580002
-1.6481353 -0.1565869 3.1720002
-1.637157 -0.15698181 3.1800001
-1.6261026 -0.15737674 3.1880002
-1.6139616 -0.15767294 3.1940002
-1.6012627 -0.15791976 3.1990001
-1.5885164 -0.15816659 3.2040002
-1.5762132 -0.15846278 3.21
-1.5638533 -0.15875897 3.2160001
-1.5581772 -0.15974627 3.2360001
-1.5389618 -0.15935135 3.2280002
-1.5391742 -0.16098042 3.2610002
-1.5236537 -0.16098042 3.2610002
-1.5058209 -0.16073358 3.256
-1.4871203 -0.16038802 3.2490001
-1.4689393 -0.16009185 3.2430003
-1.4342319 -0.15796912 3.2
-1.39683 -0.15550086 3.1500001
-1.3730643 -0.15451355 3.1300001
-1.3369051 -0.15209465 3.0810001
-1.3252455 -0.15244021 3.0880001
-1.3101242 -0.15239084 3.0870001
-1.2866193 -0.15135418 3.0660002
-1.2815694 -0.15248957 3.0890002
-1.2804016 -0.15411863 3.1220002
-1.274866 -0.15525404 3.1450002
-1.2807291 -0.15782103 3.1970003
-1.2694716 -0.15831469 3.2070003
-1.2788465 -0.1614247 3.2700002
-1.2702371 -0.16231327 3.2880001
-1.2690877 -0.16418916 3.3260002
-1.2690837 -0.16626251 3.3680003
-1.2671918 -0.16813838 3.4060001
-1.2517158 -0.16823712 3.4080002
-1.246734 -0.16976744 3.4390001
-1.2321553 -0.17001428 3.4440002
-1.2164698 -0.170113 3.4460001
-1.200069 -0.170113 3.4460001
-1.1788592 -0.16942188 3.4320002
-1.1662508 -0.16996489 3.4430001
-1.1495303 -0.16991554 3.4420002
-1.1420372 -0.17124841 3.4690001
-1.1261756 -0.17134714 3.4710002
-1.1099753 -0.17139649 3.4720001
-1.0943955 -0.1715446 3.4750001
-1.0781667 -0.17159396 3.4760001
-1.0726179 -0.17337111 3.5120001
-1.0568049 -0.17351921 3.5150001
-1.0409632 -0.17366731 3.5180001
-1.0306246 -0.17475335 3.5400002
-1.0152082 -0.17500016 3.5450001
-0.99889928 -0.1750989 3.5470002
-0.97897226 -0.17455588 3.5360003
-0.96187091 -0.17450652 3.5350001
-0.94451165 -0.1744078 3.5330002
-0.92165732 -0.17327239 3.5100002
-0.9031471 -0.17292683 3.5030003
-0.87736458 -0.17114967 3.4670002
-0.85415953 -0.16981681 3.4400001
-0.83754367 -0.16976744 3.4390001
-0 -0 0
-0 -0 0
-0 -0 0
-0 -0 0
-0 -0 0
-0 -0 0
-0 -0 0
-0 -0 0
-0 -0 0
-0 -0 0
-0 -0 0
-0 -0 0
-0 -0 0
-0 -0 0
-0.14546812 -0.041713722 0.84500003
-0.14127901 -0.041664358 0.84400004
-0.13709944 -0.041614991 0.84300005
-0.13277151 -0.041516259 0.84100002
-0.12846263 -0.041417532 0.83900005
-0.12432112 -0.041368164 0.83800006
-0.12004554 -0.041269433 0.83600003
-0.115789 -0.041170705 0.83400005
-0.11155149 -0.04107197 0.83200002
-0.10746235 -0.041022606 0.83100003
-0.10338272 -0.040973242 0.83000004
-0.09919282 -0.040874511 0.82800007
-0.095136985 -0.040825143 0.82700002
-0.091090672 -0.04077578 0.82600003
-0.08705388 -0.040726416 0.82500005
-0.08302661 -0.040677052 0.82400006
-0.078912839 -0.040578317 0.82200003
-0.074909367 -0.040528953 0.82100004
-0.070915408 -0.040479589 0.82000005
-0.066930972 -0.040430225 0.81900007
-0.062956043 -0.040380858 0.81800002
-0.059062842 -0.040380858 0.81800002
-0.055102203 -0.04033149 0.81700003
-0.051151078 -0.040282127 0.81600004
-0.047209475 -0.040232763 0.81500006
-0.043277383 -0.040183395 0.81400001
-0.03935482 -0.040134031 0.81300002
-0.035441771 -0.040084664 0.81200004
-0.031577125 -0.040084664 0.81200004
-0.027678356 -0.0400353 0.81100005
-0.023789104 -0.039985936 0.81000006
-0.019909371 -0.039936569 0.80900002
-0.016039155 -0.039887205 0.80800003
-0.012178461 -0.039837837 0.80700004
-0.0083272848 -0.039788473 0.80600005
-0.0044856267 -0.03973911 0.80500007
-0.00065348722 -0.039689742 0.80400002
0.0031691331 -0.039640378 0.80300003
0.0069822348 -0.039591011 0.80200005
0.010785817 -0.039541647 0.80100006
0.01457988 -0.039492279 0.80000001
0.018364426 -0.039442915 0.79900002
0.022139452 -0.039393552 0.79800004
0.025904959 -0.039344184 0.79700005
0.029660949 -0.03929482 0.79600006
0.033407416 -0.039245453 0.79500002
0.03714437 -0.039196089 0.79400003
0.040871799 -0.039146725 0.79300004
0.044589713 -0.039097358 0.79200006
0.048298106 -0.03904799 0.79100001
0.051996984 -0.038998626 0.79000002
0.05568634 -0.038949262 0.78900003
0.059366181 -0.038899899 0.78800005
0.063036501 -0.038850531 0.78700006
0.066697292 -0.038801163 0.78600001
0.070348583 -0.0387518 0.78500003
0.073990345 -0.038702436 0.78400004
0.077721722 -0.038702436 0.78400004
0.081349209 -0.038653072 0.78300005
0.084967174 -0.038603704 0.78200006
0.088689037 -0.038603704 0.78200006
0.092292719 -0.038554337 0.78100002
0.096009813 -0.038554337 0.78100002
0.099599227 -0.038504973 0.78000003
0.10317913 -0.038455609 0.77900004
0.10674949 -0.038406245 0.77800006
0.11045232 -0.038406245 0.77800006
0.1140084 -0.038356878 0.77700001
0.11755497 -0.03830751 0.77600002
0.12109204 -0.038258146 0.77500004
0.12461958 -0.038208783 0.77400005
0.12813759 -0.038159419 0.77300006
0.13164608 -0.038110051 0.77200001
0.13514507 -0.038060684 0.77100003
0.13863453 -0.03801132 0.77000004
0.14211448 -0.037961956 0.76900005
0.1455849 -0.037912589 0.76800001
0.14904581 -0.037863225 0.76700002
0.15249719 -0.037813857 0.76600003
0.15593906 -0.037764493 0.76500005
0.15937142 -0.03771513 0.76400006
0.16279423 -0.037665762 0.76300001
0.16620754 -0.037616398 0.76200002
0.16961133 -0.037567034 0.76100004
0.17300561 -0.037517667 0.76000005
0.17639036 -0.037468303 0.75900006
0.1797656 -0.037418935 0.75800002
0.18337323 -0.037418935 0.75800002
0.18673418 -0.037369572 0.75700003
0.19033706 -0.037369572 0.75700003
0.19393994 -0.037369572 0.75700003
0.19728187 -0.037320208 0.75600004
0.20087996 -0.037320208 0.75600004
0.2044781 -0.037320208 0.75600004
0.20780097 -0.03727084 0.75500005
0.21139434 -0.03727084 0.75500005
0.2149877 -0.03727084 0.75500005
0.21858104 -0.03727084 0.75500005
0.22217441 -0.03727084 0.75500005
0.22576776 -0.03727084 0.75500005
0.2293611 -0.03727084 0.75500005
0.23295447 -0.03727084 0.75500005
0.23654783 -0.03727084 0.75500005
0.24014118 -0.03727084 0.75500005
0.24373455 -0.03727084 0.75500005
0.24732789 -0.03727084 0.75500005
0.25092125 -0.03727084 0.75500005
0.2545146 -0.03727084 0.75500005
0.25810796 -0.03727084 0.75500005
0.26170132 -0.03727084 0.75500005
0 -0 0
0 -0 0
0 -0 0
0 -0 0
0 -0 0
1.870651 -0.24613564 4.9860001
1.8943815 -0.24613564 4.9860001
1.9038781 -0.24430913 4.9490004
1.9134117 -0.24253197 4.9130001
1.9367949 -0.24253197 4.9130001
1.9601778 -0.24253197 4.9130001
1.9835607 -0.24253197 4.9130001
2.0069437 -0.24253197 4.9130001
2.0452039 -0.24430913 4.9490004
2.0687585 -0.24430913 4.9490004
2.1079552 -0.24613564 4.9860001
2.1316857 -0.24613564 4.9860001
2.171411 -0.24796216 5.0230002
2.1953175 -0.24796216 5.0230002
2.2360129 -0.24983805 5.0610003
2.2601004 -0.24983805 5.0610003
2.2841878 -0.24983805 5.0610003
2.3082752 -0.24983805 5.0610003
0 -0 0
0 -0 0
0 -0 0
0 -0 0
0 -0 0
0 -0 0
0 -0 0
1.1262043 -0.11250363 2.279
1.1385478 -0.11265173 2.2820001
1.1489052 -0.11260237 2.2810001
1.159253 -0.11255301 2.2800002
1.1726704 -0.11279982 2.2850001
1.1799198 -0.11245427 2.2780001
1.1897163 -0.11235554 2.276
1.1968564 -0.11200998 2.2690001
1.2071233 -0.11196062 2.2680001
1.2179177 -0.11196062 2.2680001
1.2292536 -0.11200998 2.2690001
1.2411458 -0.11210871 2.2710001
1.253057 -0.11220744 2.273
1.2655432 -0.11235554 2.276
1.2786189 -0.11255301 2.2800002
1.3154861 -0.11482381 2.3260002
1.3231345 -0.11452762 2.3200002
1.3347514 -0.11457698 2.3210001
1.3452183 -0.11452762 2.3200002
1.3393067 -0.11309602 2.2910001
1.3337086 -0.11171378 2.263
0 -0 0
0 -0 0
0 -0 0
0 -0 0
0 -0 0
3.4658611 -0.27689025 5.6090002
3.5218222 -0.27921042 5.6560001
3.609602 -0.28399888 5.7530003
3.6679602 -0.28641775 5.802
3.7280588 -0.28893539 5.8530002
3.8220115 -0.29402003 5.9560003
3.8846214 -0.2966364 6.0090003
3.9132206 -0.2966364 6.0090003
3.9778988 -0.29935148 6.0640001
4.0067601 -0.29935148 6.0640001
4.0356212 -0.29935148 6.0640001
4.0644822 -0.29935148 6.0640001
4.1304698 -0.30206659 6.1190004
4.1595926 -0.30206659 6.1190004
4.2270494 -0.30483103 6.1750002
4.2564392 -0.30483103 6.1750002
4.2469611 -0.30206659 6.1190004
0 -0 0
0 -0 0
0 -0 0
0 -0 0
0 -0 0
0 -0 0
2.2090445 -0.14992258 3.0370002
2.1978741 -0.14819479 3.0020001
2.2018454 -0.14750367 2.9880002
2.2116165 -0.14720748 2.9820001
2.2205842 -0.14686193 2.9750001
2.2257292 -0.14626953 2.9630001
2.2383196 -0.14617081 2.9610002
2.2493694 -0.14597335 2.9570003
2.2619121 -0.14587462 2.9550002
2.2752061 -0.14582525 2.9540002
2.2815156 -0.14533161 2.9440002
2.2924082 -0.14513414 2.9400001
2.306401 -0.14513414 2.9400001
2.321183 -0.1451835 2.9410002
0 -0 0
0 -0 0
0 -0 0
0 -0 0
0 -0 0
0 -0 0
0 -0 0
0 -0 0
0 -0 0
5.8068581 -0.34254616 6.9390001
5.7801299 -0.33904123 6.8680005
5.8729091 -0.34254616 6.9390001
5.9059348 -0.34254616 6.9390001
6.0005836 -0.34610048 7.0110002
6.0339518 -0.34610048 7.0110002
6.0673199 -0.34610048 7.0110002
6.1650805 -0.34975353 7.0850005
6.2644196 -0.3534559 7.1600003
6.2984972 -0.3534559 7.1600003
6.4006763 -0.35725707 7.2370005
6.4351201 -0.35725707 7.2370005
6.5401864 -0.36115691 7.3160005
6.6469035 -0.36510614 7.3960004
6.7561889 -0.3691541 7.4780002
0 -0 0
0 -0 0
0 -0 0
0 -0 0
0 -0 0
0 -0 0
0 -0 0
0 -0 0
0 -0 0
0 -0 0
0 -0 0
0 -0 0
0 -0 0
0 -0 0
0 -0 0
0 -0 0
0 -0 0
0 -0 0
-0 -0 0
-0 -0 0
-0 -0 0
-0 -0 0
-0 -0 0
-0 -0 0
-2.8830543 -0.12917879 2.8960001
-2.869271 -0.12917879 2.8960001
-2.8535159 -0.12908958 2.8940001
-2.8417046 -0.12917879 2.8960001
-2.8220623 -0.12891117 2.8900001
-2.8053925 -0.12877734 2.8870001
-2.7868173 -0.12855431 2.8820002
-2.756743 -0.12779602 2.8650002
-2.7373626 -0.12752838 2.8590002
-2.7189918 -0.12730534 2.8540001
-2.7016168 -0.12712693 2.8500001
-2.686166 -0.1270377 2.848
-2.6726112 -0.1270377 2.848
-2.6525207 -0.12672547 2.8410001
-2.6399283 -0.12677008 2.8420002
-2.6504295 -0.12792982 2.868
-2.6404572 -0.12810826 2.8720002
-2.6341052 -0.1284651 2.8800001
-2.6240373 -0.12864353 2.8840001
-2.6148367 -0.12886655 2.8890002
-2.6046882 -0.12904498 2.8930001
-2.6115177 -0.13007092 2.9160001
-2.6110015 -0.13074002 2.9310002
-2.6014822 -0.13096304 2.9360001
-2.5901523 -0.13109685 2.9390001
-2.570905 -0.13082922 2.9330001
-2.5560741 -0.13078462 2.9320002
-2.5577257 -0.13158752 2.95
-2.5342007 -0.13109685 2.9390001
-2.5202129 -0.13109685 2.9390001
-2.5062249 -0.13109685 2.9390001
-2.4888449 -0.13091843 2.9350002
-2.4740331 -0.13087383 2.9340003
-2.4600689 -0.13087383 2.9340003
-2.4444373 -0.13078462 2.9320002
-2.4329693 -0.13091843 2.9350002
-2.4132314 -0.13060619 2.9280002
-2.3992958 -0.13060619 2.9280002
-2.38536 -0.13060619 2.9280002
-2.3730445 -0.1306954 2.9300001
-2.3623199 -0.13087383 2.9340003
-2.3507569 -0.13100764 2.937
-2.3383698 -0.13109685 2.9390001
-2.3220093 -0.13096304 2.9360001
-2.3229718 -0.13181055 2.9550002
-2.3128147 -0.13203357 2.96
-2.3064926 -0.13247964 2.97
-2.293901 -0.13256885 2.9720001
-2.3035355 -0.13395163 3.0030003
-2.2953415 -0.13430849 3.0110002
-2.2749505 -0.13395163 3.0030003
-2.2809837 -0.13515599 3.0300002
-2.2717988 -0.13546824 3.0370002
-2.2625473 -0.13578048 3.0440001
-2.2473214 -0.13573587 3.0430002
-2.233572 -0.13578048 3.0440001
-2.2271032 -0.13627113 3.0550001
-2.2002513 -0.13551284 3.0380001
-2.1829143 -0.13533442 3.0340002
-2.1656153 -0.13515599 3.0300002
-2.1497746 -0.13506678 3.0280001
-2.1297214 -0.13470994 3.0200002
-2.1132464 -0.13457613 3.0170002
-2.0981917 -0.13453151 3.016
-2.0845282 -0.13457613 3.0170002
-2.0756583 -0.13493297 3.0250001
-2.0619428 -0.13497758 3.0260003
-2.0495706 -0.13511139 3.029
-2.0485921 -0.13600351 3.0490003
-2.0380836 -0.13627113 3.0550001
-2.0261929 -0.13644958 3.0590003
-2.0149219 -0.1366726 3.0640001
-2.0022976 -0.13680641 3.0670002
-1.9825159 -0.13644958 3.0590003
-1.9698867 -0.13658337 3.062
-1.9572291 -0.1367172 3.0650001
-1.9439092 -0.13680641 3.0670002
-1.9356025 -0.13725248 3.0770001
-1.9228309 -0.13738629 3.0800002
-1.909411 -0.13747551 3.0820003
-1.8953571 -0.1375201 3.0830002
-1.880074 -0.13747551 3.0820003
-1.8654054 -0.13747551 3.0820003
-1.8495358 -0.13738629 3.0800002
-1.8336854 -0.13729708 3.0780001
-1.8107623 -0.1366726 3.0640001
-1.7961793 -0.1366726 3.0640001
-1.7833411 -0.13680641 3.0670002
-1.770474 -0.13694024 3.0700002
-1.7810279 -0.13890289 3.1140001
-1.7679086 -0.13903672 3.1170001
-1.7676966 -0.14019647 3.1430001
-1.7549684 -0.14037488 3.1470001
-1.7422022 -0.14055333 3.1510003
-1.729946 -0.14077634 3.1560001
-1.7165555 -0.14091016 3.1590002
-1.6972115 -0.14055333 3.1510003
-1.6838162 -0.14068712 3.154
-1.6698632 -0.14077634 3.1560001
-1.6564155 -0.14091016 3.1590002
-1.6611251 -0.14260519 3.1970003
-1.6423053 -0.14229295 3.1900001
-1.6332436 -0.14282821 3.2020001
-1.6149721 -0.14256057 3.1960001
-1.6017631 -0.142739 3.2
-1.6078522 -0.14465706 3.2430003
-1.5958546 -0.1449693 3.2500002
-1.5745512 -0.14443403 3.2380002
-1.5548067 -0.14403257 3.2290001
-1.540392 -0.1441218 3.2310002
-1.5405902 -0.14559379 3.2640002
-1.5250555 -0.14559379 3.2640002
-1.5062834 -0.14528154 3.2570002
-1.4866625 -0.14488009 3.2480001
-1.4702981 -0.14479087 3.2460001
-1.4351283 -0.14282821 3.2020001
-1.4008209 -0.14091016 3.1590002
-1.3726256 -0.13957198 3.1290002
-1.3373392 -0.13747551 3.0820003
-1.3265331 -0.13787696 3.0910001
-1.3139437 -0.13809998 3.0960002
-1.3013067 -0.13832301 3.1010001
-1.2865478 -0.13832301 3.1010001
-1.295166 -0.14086556 3.1580002
-1.2866215 -0.14157926 3.1740003
-1.2795272 -0.14247137 3.1940002
-1.280951 -0.14434482 3.2360001
-1.2792375 -0.14590603 3.2710001
-1.2686918 -0.14648591 3.2840002
-1.2683245 -0.14827015 3.3240001
-1.2690837 -0.15023281 3.3680003
-1.253798 -0.15032202 3.3700001
-1.2517158 -0.15201704 3.4080002
-1.2354957 -0.15201704 3.4080002
-1.2199911 -0.15210626 3.4100001
-1.2027024 -0.15197243 3.4070001
-1.1993725 -0.15362285 3.4440002
-1.1788592 -0.15308759 3.4320002
-1.1669283 -0.15366746 3.4450002
-1.1488622 -0.15344442 3.4400001
-1.1328192 -0.15348904 3.4410002
-1.1261756 -0.15482722 3.4710002
-1.1099753 -0.15487182 3.4720001
-1.0947105 -0.15505023 3.4760001
-1.0781667 -0.15505023 3.4760001
-1.0732288 -0.15674527 3.5140002
-1.0568049 -0.15678987 3.5150001
-1.0409632 -0.1569237 3.5180001
-1.0250931 -0.15705751 3.5210001
-1.0149219 -0.15808345 3.5440001
-0.99833602 -0.15812805 3.5450001
-0.97841853 -0.15763739 3.5340002
-0.96105456 -0.15754817 3.5320001
-0.94344234 -0.15741436 3.5290003
-0.92270768 -0.15674527 3.5140002
-0.89334989 -0.15455958 3.4650002
-0.87711149 -0.15460418 3.4660001
-0.85366297 -0.15335523 3.4380002
-0.83705658 -0.15331061 3.4370003
-0 -0 0
-0 -0 0
-0 -0 0
-0 -0 0
-0 -0 0
-0 -0 0
-0 -0 0
-0 -0 0
-0 -0 0
-0 -0 0
-0 -0 0
-0 -0 0
-0 -0 0
-0 -0 0
-0.14564027 -0.037736624 0.84600002
-0.14144641 -0.037692018 0.84500003
-0.13709944 -0.037602808 0.84300005
-0.13277151 -0.037513595 0.84100002
-0.12846263 -0.037424382 0.83900005
-0.12432112 -0.037379779 0.83800006
-0.12004554 -0.037290566 0.83600003
-0.115789 -0.037201352 0.83400005
-0.11168557 -0.03715675 0.83300006
-0.10759166 -0.037112139 0.83200002
-0.10338272 -0.03702293 0.83000004
-0.099312611 -0.036978323 0.82900006
-0.095136985 -0.03688911 0.82700002
-0.091090672 -0.036844507 0.82600003
-0.08705388 -0.0367999 0.82500005
-0.08302661 -0.036755294 0.82400006
-0.07900884 -0.036710687 0.82300001
-0.075000606 -0.03666608 0.82200003
-0.071001887 -0.036621477 0.82100004
-0.06701269 -0.036576871 0.82000005
-0.063033015 -0.036532264 0.81900007
-0.059062842 -0.036487658 0.81800002
-0.055102203 -0.036443051 0.81700003
-0.051151078 -0.036398448 0.81600004
-0.047209475 -0.036353841 0.81500006
-0.043277383 -0.036309235 0.81400001
-0.03935482 -0.036264628 0.81300002
-0.035441771 -0.036220022 0.81200004
-0.031577125 -0.036220022 0.81200004
-0.027678356 -0.036175419 0.81100005
-0.023789104 -0.036130812 0.81000006
-0.019909371 -0.036086205 0.80900002
-0.016039155 -0.036041599 0.80800003
-0.012178461 -0.035996992 0.80700004
-0.0083272848 -0.035952389 0.80600005
-0.0044856267 -0.035907783 0.80500007
-0.00065348722 -0.035863172 0.80400002
0.0031691331 -0.035818569 0.80300003
0.0069822348 -0.035773963 0.80200005
0.010785817 -0.03572936 0.80100006
0.01457988 -0.035684749 0.80000001
0.018364426 -0.035640143 0.79900002
0.022139452 -0.03559554 0.79800004
0.025904959 -0.035550933 0.79700005
0.029660949 -0.035506327 0.79600006
0.033407416 -0.03546172 0.79500002
0.03714437 -0.035417113 0.79400003
0.040871799 -0.035372511 0.79300004
0.044589713 -0.035327904 0.79200006
0.048298106 -0.035283297 0.79100001
0.051996984 -0.035238691 0.79000002
0.05568634 -0.035194084 0.78900003
0.059366181 -0.035149481 0.78800005
0.063036501 -0.035104875 0.78700006
0.066697292 -0.035060268 0.78600001
0.070348583 -0.035015661 0.78500003
0.073990345 -0.034971055 0.78400004
0.077721722 -0.034971055 0.78400004
0.081349209 -0.034926452 0.78300005
0.084967174 -0.034881845 0.78200006
0.088689037 -0.034881845 0.78200006
0.092410892 -0.034881845 0.78200006
0.096009813 -0.034837238 0.78100002
0.099599227 -0.034792632 0.78000003
0.10317913 -0.034748025 0.77900004
0.10674949 -0.034703422 0.77800006
0.11045232 -0.034703422 0.77800006
0.1140084 -0.034658812 0.77700001
0.11755497 -0.034614209 0.77600002
0.12109204 -0.034569602 0.77500004
0.12461958 -0.034524996 0.77400005
0.12813759 -0.034480393 0.77300006
0.13164608 -0.034435783 0.77200001
0.13514507 -0.03439118 0.77100003
0.13863453 -0.034346573 0.77000004
0.14211448 -0.034301966 0.76900005
0.1455849 -0.03425736 0.76800001
0.14904581 -0.034212753 0.76700002
0.15249719 -0.03416815 0.76600003
0.15614291 -0.03416815 0.76600003
0.15958001 -0.034123544 0.76500005
0.1630076 -0.034078937 0.76400006
0.16642566 -0.03403433 0.76300001
0.16983421 -0.033989724 0.76200002
0.17323324 -0.033945121 0.76100004
0.17662276 -0.033900514 0.76000005
0.18000276 -0.033855908 0.75900006
0.18337323 -0.033811301 0.75800002
0.18673418 -0.033766694 0.75700003
0.19033706 -0.033766694 0.75700003
0.19393994 -0.033766694 0.75700003
0.19728187 -0.033722091 0.75600004
0.20087996 -0.033722091 0.75600004
0.2044781 -0.033722091 0.75600004
0.20807621 -0.033722091 0.75600004
0.21139434 -0.033677485 0.75500005
0.2149877 -0.033677485 0.75500005
0.21858104 -0.033677485 0.75500005
0.22217441 -0.033677485 0.75500005
0.22576776 -0.033677485 0.75500005
0.2293611 -0.033677485 0.75500005
0.23295447 -0.033677485 0.75500005
0.23654783 -0.033677485 0.75500005
0.24014118 -0.033677485 0.75500005
0.24373455 -0.033677485 0.75500005
0.24732789 -0.033677485 0.75500005
0.25092125 -0.033677485 0.75500005
0.2545146 -0.033677485 0.75500005
0.25810796 -0.033677485 0.75500005
0 -0 0
0 -0 0
0 -0 0
0 -0 0
0 -0 0
0 -0 0
1.870651 -0.22240521 4.9860001
1.8803238 -0.2207548 4.9490004
1.8900288 -0.21914898 4.9130001
1.9134117 -0.21914898 4.9130001
1.922603 -0.21754317 4.8770003
1.9458146 -0.21754317 4.8770003
1.9690262 -0.21754317 4.8770003
2.0069437 -0.21914898 4.9130001
2.0452039 -0.2207548 4.9490004
2.0687585 -0.2207548 4.9490004
2.1079552 -0.22240521 4.9860001
2.1475046 -0.22405563 5.0230002
2.171411 -0.22405563 5.0230002
2.1953175 -0.22405563 5.0230002
2.2360129 -0.22575065 5.0610003
2.2601004 -0.22575065 5.0610003
2.2841878 -0.22575065 5.0610003
2.3082752 -0.22575065 5.0610003
0 -0 0
0 -0 0
0 -0 0
0 -0 0
0 -0 0
0 -0 0
0 -0 0
1.125216 -0.10156773 2.2770002
1.1365521 -0.10161233 2.2780001
1.1478977 -0.10165693 2.279
1.158236 -0.10161233 2.2780001
1.1716439 -0.10183536 2.283
1.1788839 -0.10152312 2.276
1.1897163 -0.10152312 2.276
1.1963289 -0.10116627 2.2680001
1.2065911 -0.10112166 2.2670002
1.2179177 -0.10116627 2.2680001
1.2325042 -0.10147851 2.2750001
1.2400528 -0.10121087 2.2690001
1.2519546 -0.10130009 2.2710001
1.2716597 -0.10201379 2.2870002
1.3049765 -0.10379802 2.3270001
1.3166171 -0.10384262 2.3280001
1.3282672 -0.10388723 2.329
1.3399271 -0.10393184 2.3300002
1.3492771 -0.10379802 2.3270001
1.3369684 -0.10201379 2.2870002
1.3331193 -0.10089863 2.2620001
0 -0 0
0 -0 0
0 -0 0
0 -0 0
0 -0 0
3.4368193 -0.24809824 5.5620003
3.4925568 -0.2501947 5.6090002
3.5487413 -0.25229117 5.6560001
3.6060059 -0.25443229 5.7040005
3.6955743 -0.25880364 5.802
3.7559154 -0.26107857 5.8530002
3.8167422 -0.26335347 5.9040003
3.8787057 -0.26567298 5.9560003
3.9418197 -0.26803708 6.0090003
3.9704192 -0.26803708 6.0090003
3.9990187 -0.26803708 6.0090003
4.0276175 -0.26803708 6.0090003
4.0933433 -0.27049041 6.0640001
4.1595926 -0.27294374 6.1190004
4.2270494 -0.27544168 6.1750002
4.2564392 -0.27544168 6.1750002
4.2858286 -0.27544168 6.1750002
0 -0 0
0 -0 0
0 -0 0
0 -0 0
0 -0 0
0 -0 0
2.2097719 -0.13551284 3.0380001
2.1986063 -0.13395163 3.0030003
2.1944764 -0.13283649 2.9780002
2.2108748 -0.1329703 2.9810002
2.2205842 -0.13270266 2.9750001
2.224227 -0.13207819 2.9610002
2.2368078 -0.13198897 2.9590001
2.247848 -0.13181055 2.9550002
2.2603812 -0.13172133 2.9530001
2.2736657 -0.13167673 2.9520001
2.2815156 -0.1313199 2.9440002
2.2939677 -0.13123067 2.9420002
2.3071856 -0.13118607 2.9410002
2.321183 -0.13118607 2.9410002
0 -0 0
0 -0 0
0 -0 0
0 -0 0
0 -0 0
0 -0 0
0 -0 0
0 -0 0
0 -0 0
5.6327949 -0.30024257 6.7310004
5.6648302 -0.30024257 6.7310004
5.7544184 -0.30327576 6.7990003
5.8455052 -0.3063536 6.8680005
5.9389601 -0.3095206 6.9390001
6.0339518 -0.31273222 7.0110002
6.0673199 -0.31273222 7.0110002
6.1006885 -0.31273222 7.0110002
6.1988006 -0.3160331 7.0850005
6.2984972 -0.31937853 7.1600003
6.4006763 -0.32281318 7.2370005
6.4351201 -0.32281318 7.2370005
6.5401864 -0.32633707 7.3160005
6.6469035 -0.32990554 7.3960004
6.7561889 -0.33356321 7.4780002
0 -0 0
0 -0 0
0 -0 0
0 -0 0
0 -0 0
0 -0 0
0 -0 0
0 -0 0
0 -0 0
0 -0 0
0 -0 0
0 -0 0
0 -0 0
0 -0 0
0 -0 0
0 -0 0
0 -0 0
0 -0 0
-0 -0 0
-0 -0 0
-0 -0 0
-0 -0 0
-0 -0 0
-0 -0 0
-2.8920143 -0.11575416 2.9050002
-2.877197 -0.11571431 2.904
-2.859432 -0.11555493 2.9000001
-2.8407235 -0.1153557 2.8950002
-2.8210859 -0.11511662 2.8890002
-2.8053925 -0.11503692 2.8870001
-2.7868173 -0.11483769 2.8820002
-2.7673273 -0.11459861 2.8760002
-2.7373626 -0.11392123 2.8590002
-2.7189918 -0.11372198 2.8540001
-2.7006688 -0.11352276 2.8490002
-2.6842799 -0.11340322 2.8460002
-2.669796 -0.11336336 2.845
-2.6525207 -0.11320398 2.8410001
-2.6399283 -0.11324383 2.8420002
-2.6300986 -0.11340322 2.8460002
-2.6202307 -0.1135626 2.8500001
-2.6075811 -0.11360244 2.8510001
-2.6231275 -0.11487754 2.8830001
-2.6130264 -0.11503692 2.8870001
-2.6046882 -0.115276 2.8930001
-2.6186821 -0.11651124 2.924
-2.6029842 -0.11643155 2.9220002
-2.5908492 -0.11651124 2.924
-2.5795765 -0.11663078 2.927
-2.5665224 -0.11667063 2.9280002
-2.5552022 -0.11679018 2.9310002
-2.5386515 -0.11667063 2.9280002
-2.525578 -0.11671048 2.9290001
-2.5116377 -0.11671048 2.9290001
-2.4968448 -0.11667063 2.9280002
-2.4863009 -0.11683001 2.9320002
-2.4723465 -0.11683001 2.9320002
-2.4583919 -0.11683001 2.9320002
-2.4444373 -0.11683001 2.9320002
