# .PCD v0.7 - Point Cloud Data file format
VERSION 0.7
FIELDS x y z
SIZE 4 4 4
TYPE F F F
COUNT 1 1 1
WIDTH 1667
HEIGHT 1
VIEWPOINT 0 0 0 1 0 0 0
POINTS 1667
DATA ascii
0.32683012 -0.27245149 1.3510001
0.33350679 -0.27265316 1.3520001
0.34019291 -0.2728548 1.353
0.34714481 -0.27325815 1.355
0.35385478 -0.27345982 1.3560001
0.36057425 -0.27366149 1.3570001
0.36730325 -0.27386314 1.358
0.37404177 -0.27406481 1.3590001
0.38106981 -0.27446815 1.3610001
0.38754734 -0.27446815 1.3610001
0.39402488 -0.27446815 1.3610001
0 -0 0
0 -0 0
0 -0 0
0 -0 0
0 -0 0
0 -0 0
0 -0 0
1.0545013 -0.64916456 3.2190001
1.0718158 -0.65037453 3.2250001
1.0875021 -0.65057623 3.2260001
1.1025141 -0.65037453 3.2250001
1.1039982 -0.64230788 3.1850002
1.1181029 -0.64170289 3.1820002
1.1307542 -0.64029121 3.1750002
1.1422564 -0.63827455 3.1650002
1.1525663 -0.6356529 3.1520002
1.1549736 -0.62879622 3.118
1.1589333 -0.62294793 3.0890002
1.1512187 -0.61104959 3.0300002
1.1364025 -0.59572297 2.9540002
1.1220312 -0.58100122 2.881
1.1057825 -0.5656746 2.8050001
1.095194 -0.55357462 2.7450001
1.0848417 -0.54187793 2.687
1.0788395 -0.5326013 2.641
1.0744656 -0.524333 2.6000001
1.0651033 -0.51384634 2.5480001
1.0793442 -0.51485467 2.5530002
1.0885022 -0.51344293 2.546
1.0954322 -0.51102298 2.5340002
1.1048702 -0.50981301 2.5280001
1.114251 -0.50860298 2.5220001
1.1222352 -0.50678796 2.513
1.1319389 -0.50577968 2.5080001
1.1233513 -0.49670464 2.4630001
1.1336913 -0.49609965 2.46
1.1463307 -0.496503 2.4620001
1.1514633 -0.49367967 2.4480002
1.1616889 -0.49307469 2.4450002
1.1685268 -0.49105802 2.4350002
1.1786619 -0.490453 2.4320002
1.1882793 -0.48964635 2.4280002
1.1993408 -0.48944464 2.427
1.211391 -0.48964635 2.4280002
1.2224431 -0.48944464 2.427
1.2289097 -0.48742798 2.4170001
1.2342548 -0.48500803 2.4050002
1.2436293 -0.48420131 2.401
1.2529658 -0.48339465 2.3970001
1.2627916 -0.48278967 2.3940001
1.2784437 -0.48440301 2.4020002
1.2700067 -0.47694132 2.365
1.2861385 -0.47875634 2.3740001
1.2772162 -0.47129467 2.3370001
1.2971594 -0.47452134 2.3530002
1.3066901 -0.47391635 2.3500001
1.3178748 -0.47391635 2.3500001
1.3279283 -0.47351301 2.348
1.3379627 -0.47310969 2.3460002
1.3462529 -0.47210133 2.3410001
1.3562351 -0.47169805 2.3390002
1.3638598 -0.47048801 2.3330002
1.3726059 -0.46968132 2.329
1.3819084 -0.46907637 2.3260002
1.3923798 -0.46887466 2.325
1.4082747 -0.47048801 2.3330002
1.4151196 -0.46907637 2.3260002
1.4237372 -0.46826968 2.322
1.4341707 -0.468068 2.3210001
1.4445947 -0.46786636 2.3200002
1.455009 -0.46766466 2.319
1.4660461 -0.46766466 2.319
1.4745355 -0.466858 2.3150001
1.4836283 -0.46625301 2.312
1.4933392 -0.4658497 2.3100002
1.5101944 -0.46766466 2.319
1.4936801 -0.45919469 2.2770002
1.5018742 -0.458388 2.273
1.5113615 -0.45798469 2.2710001
1.5101053 -0.45435467 2.253
1.5174532 -0.45334637 2.2480001
1.5057195 -0.44669136 2.2150002
1.5128387 -0.445683 2.21
1.5281821 -0.44709468 2.217
1.5373459 -0.44669136 2.2150002
1.5422972 -0.44507802 2.207
1.5492834 -0.44406971 2.2020001
1.556222 -0.44306135 2.197
1.557408 -0.44043967 2.184
1.5649312 -0.43963301 2.1800001
1.570971 -0.43842301 2.174
1.5776811 -0.43741471 2.1690001
1.5850757 -0.43660805 2.1650002
1.5931692 -0.43600306 2.1620002
1.6012342 -0.43539804 2.1590002
1.608524 -0.43459138 2.1550002
1.6172782 -0.43418804 2.1530001
1.6267693 -0.4339864 2.1520002
1.6377722 -0.43418804 2.1530001
1.6495502 -0.43459138 2.1550002
1.6621172 -0.43519634 2.158
1.6778129 -0.43660805 2.1650002
1.7037116 -0.44064137 2.1850002
1.7407836 -0.44749802 2.2190001
1.7979105 -0.45939636 2.2780001
1.8460708 -0.46887466 2.325
1.9098551 -0.48218465 2.391
1.968643 -0.49408299 2.45
2.0102103 -0.50154465 2.4870002
2.0431859 -0.50678796 2.513
2.0584178 -0.50759465 2.5170002
2.0712197 -0.50779635 2.5180001
2.0815492 -0.50739294 2.516
2.0918598 -0.50698966 2.5140002
2.1021512 -0.50658631 2.5120001
2.1107404 -0.50577968 2.5080001
2.1184452 -0.50477129 2.503
2.1286559 -0.50436801 2.5010002
2.1354239 -0.50315797 2.4950001
2.1404135 -0.50154465 2.4870002
2.147923 -0.50053632 2.4820001
2.1588659 -0.50033468 2.4810002
2.1706738 -0.50033468 2.4810002
2.1851211 -0.50093967 2.4840002
2.2004812 -0.50174636 2.4880002
2.2167685 -0.50275463 2.493
2.2313156 -0.50335962 2.4960001
2.2431951 -0.50335962 2.4960001
2.2496536 -0.50214964 2.49
2.2605965 -0.501948 2.4890001
0 -0 0
0 -0 0
0 -0 0
0 -0 0
0 -0 0
0 -0 0
0 -0 0
0 -0 0
0 -0 0
0 -0 0
0 -0 0
0 -0 0
0 -0 0
0 -0 0
0 -0 0
0 -0 0
0 -0 0
-0 -0 0
-0 -0 0
-0 -0 0
-0 -0 0
-0 -0 0
-0 -0 0
-0 -0 0
-2.9277265 -0.58186054 2.9550002
-2.9116905 -0.58146667 2.9530001
-2.8907671 -0.58008832 2.9460001
-2.8786988 -0.58048218 2.9480002
-2.8675835 -0.58107293 2.9510002
-2.8632081 -0.58304197 2.9610002
-2.8529644 -0.58382958 2.9650002
-2.8445976 -0.58501107 2.9710002
-2.8628488 -0.59170586 3.0050001
-0 -0 0
-0 -0 0
-0 -0 0
-0 -0 0
-0 -0 0
-0 -0 0
-0 -0 0
-0 -0 0
-0 -0 0
-3.037519 -0.66082025 3.3560002
-3.0116427 -0.65865433 3.3450003
-3.0306499 -0.66633368 3.3840001
-3.0439413 -0.67283159 3.4170001
-3.0489442 -0.67755741 3.4410002
-3.0607686 -0.68385839 3.473
-3.0521281 -0.68563056 3.4820001
-3.0625813 -0.69173473 3.5130002
-3.0510633 -0.6929161 3.5190001
-3.0567338 -0.69803572 3.5450001
-3.0510094 -0.7005955 3.5580001
-3.039192 -0.70177692 3.5640001
-3.0213814 -0.70158005 3.5630002
-3.0061102 -0.70197386 3.5650001
-2.9916582 -0.70256454 3.5680001
-2.9763441 -0.70295841 3.5700002
-2.9900241 -0.71024394 3.6070001
-2.9736812 -0.71044087 3.6080003
-2.9892864 -0.71831715 3.6480002
-2.9751828 -0.71910477 3.6520002
-2.9569917 -0.71890789 3.6510003
-2.9677951 -0.72579962 3.6860001
-2.9518528 -0.72619343 3.6880002
-2.9374828 -0.72698104 3.6920002
-2.9460099 -0.73347896 3.7250001
-2.9298532 -0.73387283 3.7270002
-2.9160218 -0.73485732 3.7320001
-2.8998127 -0.73525119 3.7340002
-2.9021089 -0.74037075 3.7600002
-2.8842137 -0.74037075 3.7600002
-2.8823268 -0.74450576 3.7810001
-2.8809977 -0.74883777 3.8030002
-2.8952682 -0.75730473 3.8460002
-2.8934205 -0.76163673 3.8680003
-2.9084585 -0.7704975 3.9130001
-2.906821 -0.77502638 3.9360001
-2.888088 -0.77502638 3.9360001
-2.8693547 -0.77502638 3.9360001
-2.8506219 -0.77502638 3.9360001
-2.8153405 -0.7704975 3.9130001
-2.7645545 -0.76163673 3.8680003
-2.7149067 -0.75297278 3.8240001
-2.6663828 -0.74450576 3.7810001
-2.6175678 -0.73584187 3.7370002
-2.5990863 -0.73564494 3.7360001
-2.5806141 -0.73544806 3.7350001
-2.5628376 -0.73544806 3.7350001
-2.5620966 -0.74037075 3.7600002
-2.5584109 -0.74450576 3.7810001
-2.555197 -0.74883777 3.8030002
-2.5511067 -0.75297278 3.8240001
-2.5329068 -0.75297278 3.8240001
-2.5147066 -0.75297278 3.8240001
-2.5108695 -0.75730473 3.8460002
-2.4925649 -0.75730473 3.8460002
-2.4742601 -0.75730473 3.8460002
-2.4700041 -0.76163673 3.8680003
-2.4661725 -0.76616561 3.8910003
-2.4614925 -0.7704975 3.9130001
-2.4428692 -0.7704975 3.9130001
-2.4242456 -0.7704975 3.9130001
-2.4197617 -0.77502638 3.9360001
-2.4010289 -0.77502638 3.9360001
-2.3962166 -0.77955526 3.9590001
-2.3773742 -0.77955526 3.9590001
-2.3728297 -0.78428108 3.9830003
-2.3674653 -0.78880984 4.006
-2.3483989 -0.78880984 4.006
-2.3293328 -0.78880984 4.006
-2.3102665 -0.78880984 4.006
-2.2912002 -0.78880984 4.006
-2.259089 -0.78428108 3.9830003
-2.226634 -0.77955526 3.9590001
-2.1949651 -0.77502638 3.9360001
-2.1889489 -0.77955526 3.9590001
-2.1574993 -0.77502638 3.9360001
-2.1387661 -0.77502638 3.9360001
-2.120033 -0.77502638 3.9360001
-2.113579 -0.77955526 3.9590001
-2.1074352 -0.78428108 3.9830003
-2.1005383 -0.78880984 4.006
-2.1069322 -0.79845834 4.0550003
-2.1128592 -0.80810678 4.1040001
-2.1320918 -0.82307178 4.1800003
-2.1258411 -0.82838821 4.2070003
-2.1188323 -0.83350784 4.2330003
-2.098686 -0.83350784 4.2330003
-2.0785391 -0.83350784 4.2330003
-2.0583928 -0.83350784 4.2330003
-2.0257268 -0.82838821 4.2070003
-2.0057039 -0.82838821 4.2070003
-1.9856811 -0.82838821 4.2070003
-1.9656583 -0.82838821 4.2070003
-1.9456353 -0.82838821 4.2070003
-1.9132543 -0.82307178 4.1800003
-1.8933599 -0.82307178 4.1800003
-1.8622605 -0.81814903 4.1550002
-1.8309559 -0.81302947 4.1290002
-1.8003372 -0.80810678 4.1040001
-1.7808045 -0.80810678 4.1040001
-1.7505429 -0.80318409 4.079
-1.7417394 -0.80810678 4.1040001
-1.7326977 -0.81302947 4.1290002
-1.7238331 -0.81814903 4.1550002
-1.7143109 -0.82307178 4.1800003
-1.7053612 -0.82838821 4.2070003
-1.7065704 -0.83882433 4.2600002
-1.6862953 -0.83882433 4.2600002
-1.6765795 -0.84414077 4.2870002
-1.6561759 -0.84414077 4.2870002
-1.6460745 -0.84945726 4.3140001
-1.6360929 -0.85497063 4.342
-1.626217 -0.860681 4.3710003
-1.6156976 -0.86619437 4.3990002
-1.6052742 -0.87190467 4.428
-1.6053079 -0.88352215 4.487
-1.5945427 -0.88942945 4.5170002
-1.594636 -0.90163761 4.579
-1.6054744 -0.92034388 4.6740003
-1.5944068 -0.9268418 4.7070003
-1.5940465 -0.93983763 4.7730002
-1.5940454 -0.95342422 4.842
-1.5940365 -0.9674046 4.9130001
-1.593991 -0.9817788 4.9860001
-1.5938809 -0.99654692 5.0610003
-1.58158 -1.0040294 5.0990005
-1.5692229 -1.0117087 5.138
-1.544769 -1.0117087 5.138
-1.5087754 -1.0040294 5.0990005
-1.4734439 -0.99654692 5.0610003
-0 -0 0
-0 -0 0
-0 -0 0
-0 -0 0
-0 -0 0
-0 -0 0
-0.69147605 -0.5281049 2.6820002
-0.67390305 -0.52436364 2.6630001
-0.65973896 -0.52318221 2.6570001
-0.63905627 -0.51668423 2.6240001
-0.62537366 -0.51569974 2.6190002
-0.61244071 -0.51530594 2.6170001
-0.59952676 -0.51491207 2.615
-0.5870809 -0.51491207 2.615
-0.57485485 -0.515109 2.6160002
-0.5630492 -0.51569974 2.6190002
-0.55142516 -0.51648736 2.6230001
-0.53955764 -0.5170781 2.6260002
-0.53087288 -0.52081931 2.6450002
-0.51965588 -0.52219766 2.6520002
-0.51047528 -0.52574199 2.6700001
-0.49888629 -0.52692342 2.6760001
-0.48633173 -0.52712035 2.677
-0.47518301 -0.52889252 2.6860001
-0.46291569 -0.5294832 2.6890001
-0.45028502 -0.52968013 2.6900001
-0.43764484 -0.52987707 2.6910002
-0.42452154 -0.5294832 2.6890001
-0.41126412 -0.52889252 2.6860001
-0.3978869 -0.5281049 2.6820002
-0.38440418 -0.52712035 2.677
-0.37096909 -0.5261358 2.6720002
-0.35731339 -0.52475744 2.6650002
-0.343595 -0.52318221 2.6570001
-0.32970369 -0.52121311 2.6470001
-0.31758472 -0.52200073 2.651
-0.30301186 -0.51865333 2.6340001
-0.29124752 -0.52003169 2.641
-0.27815032 -0.51904714 2.6360002
-0.26570529 -0.51924407 2.6370001
-0.24969867 -0.51215541 2.6010001
-0.23713697 -0.51176161 2.5990002
-0.22450779 -0.51117086 2.5960002
-0.21247926 -0.51195848 2.6000001
-0.197565 -0.50546056 2.5670002
-0.18541978 -0.50565743 2.5680001
-0 -0 0
-0 -0 0
-0 -0 0
-0 -0 0
-0 -0 0
-0 -0 0
-0 -0 0
-0 -0 0
-0.03950166 -0.26484007 1.345
-0.033075646 -0.26464316 1.3440001
-0.026659142 -0.26444626 1.3430001
-0.020252161 -0.26424932 1.342
-0.013844368 -0.26385552 1.34
-0.0074611851 -0.26365864 1.3390001
-0.0010875198 -0.26346171 1.3380001
0.005276626 -0.26326481 1.337
0.011631254 -0.2630679 1.3360001
0.017989827 -0.2630679 1.3360001
0.024330176 -0.262871 1.335
0.030661009 -0.26267409 1.3340001
0.037010062 -0.26267409 1.3340001
0.043359116 -0.26267409 1.3340001
0.049708173 -0.26267409 1.3340001
0.05605723 -0.26267409 1.3340001
0.062406287 -0.26267409 1.3340001
0.068755336 -0.26267409 1.3340001
0.075104393 -0.26267409 1.3340001
0.08145345 -0.26267409 1.3340001
0.087868318 -0.262871 1.335
0.094222128 -0.262871 1.335
0.10065129 -0.2630679 1.3360001
0.10700987 -0.2630679 1.3360001
0.11345328 -0.26326481 1.337
0.11981662 -0.26326481 1.337
0.12627433 -0.26346171 1.3380001
0.13264243 -0.26346171 1.3380001
0.13901052 -0.26346171 1.3380001
0.1453786 -0.26346171 1.3380001
0.15174671 -0.26346171 1.3380001
0.15811479 -0.26346171 1.3380001
0.16448289 -0.26346171 1.3380001
0.17097868 -0.26365864 1.3390001
0.17735153 -0.26365864 1.3390001
0.18372437 -0.26365864 1.3390001
0.19009724 -0.26365864 1.3390001
0.19661681 -0.26385552 1.34
0.20299441 -0.26385552 1.34
0.20937203 -0.26385552 1.34
0.21574965 -0.26385552 1.34
0.22212724 -0.26385552 1.34
0.2286754 -0.26405245 1.3410001
0.23505777 -0.26405245 1.3410001
0.24162018 -0.26424932 1.342
0.24819212 -0.26444626 1.3430001
0.25477359 -0.26464316 1.3440001
0.26117024 -0.26464316 1.3440001
0.26756686 -0.26464316 1.3440001
0.27416736 -0.26484007 1.345
0.28077739 -0.26503697 1.3460001
0.28718352 -0.26503697 1.3460001
0.29380783 -0.2652339 1.3470001
0.30021876 -0.2652339 1.3470001
0.30685732 -0.26543078 1.348
0.31350541 -0.26562771 1.3490001
0.32040018 -0.26602152 1.3510001
0.32707205 -0.26621842 1.3520001
0.33375344 -0.26641533 1.353
0.34044436 -0.26661223 1.3540001
0.34714481 -0.26680914 1.355
0.35385478 -0.26700604 1.3560001
0.36083993 -0.26739985 1.358
0.36757374 -0.26759678 1.3590001
0.37431696 -0.26779366 1.36
0.38106981 -0.26799059 1.3610001
0.38783211 -0.26818749 1.3620001
0.39431441 -0.26818749 1.3620001
0 -0 0
0 -0 0
0 -0 0
0 -0 0
0 -0 0
0 -0 0
0 -0 0
1.0528634 -0.63285947 3.2140002
1.065169 -0.6310873 3.2050002
1.0794116 -0.63049656 3.2020001
1.0919163 -0.62892133 3.1940002
1.1019185 -0.62596768 3.1790001
1.1159946 -0.625377 3.1760001
1.1293297 -0.62439245 3.1710002
1.1429781 -0.62360483 3.1670001
1.155126 -0.62202954 3.1590002
1.1538624 -0.61336565 3.1150002
1.1593084 -0.60844296 3.0900002
1.1546381 -0.59840071 3.039
1.1425576 -0.58481413 2.97
1.1282625 -0.57043988 2.8970001
1.106571 -0.55271828 2.8070002
1.0967898 -0.54129761 2.7490001
1.0864568 -0.52987707 2.6910002
1.0796565 -0.5204255 2.6430001
1.0757054 -0.51254922 2.6030002
1.0655214 -0.50191623 2.549
1.0780759 -0.50211316 2.5500002
1.0893573 -0.5017193 2.5480001
1.0954322 -0.49896264 2.5340002
1.1048702 -0.49778119 2.5280001
1.1138092 -0.49640283 2.5210001
1.1226819 -0.4950245 2.5140002
1.1314876 -0.49364614 2.5070002
1.1238075 -0.48517916 2.4640002
1.1341523 -0.48458841 2.4610002
1.141209 -0.48261935 2.4510002
1.1509928 -0.4818317 2.447
1.162164 -0.4816348 2.4460001
1.1766849 -0.48281625 2.4520001
1.1864164 -0.48202863 2.4480002
1.1882793 -0.47809049 2.4280002
1.1993408 -0.47789356 2.427
1.2128878 -0.47868121 2.4310002
1.2239542 -0.47848427 2.4300001
1.2365365 -0.47887811 2.4320002
1.2475982 -0.47868121 2.4310002
1.2570964 -0.47789356 2.427
1.2670794 -0.47730282 2.424
1.2765062 -0.4765152 2.4200001
1.2768469 -0.47238016 2.3990002
1.2694697 -0.4654884 2.3640001
1.2845132 -0.46686676 2.3710001
1.2772162 -0.46017194 2.3370001
1.2988133 -0.46391317 2.3560002
1.304466 -0.4619441 2.3460002
1.3189963 -0.4631255 2.352
1.3290595 -0.46273172 2.3500001
1.3391033 -0.46233788 2.348
1.3491284 -0.4619441 2.3460002
1.3585545 -0.46135339 2.3430002
1.3673674 -0.46056575 2.3390002
1.3749635 -0.45938432 2.3330002
1.3842849 -0.45879358 2.3300002
1.3947753 -0.45859665 2.329
1.4094818 -0.4597781 2.335
1.415728 -0.45820287 2.3270001
1.4255767 -0.45780903 2.325
1.4354067 -0.45741525 2.3230002
1.4445947 -0.45682451 2.3200002
1.455009 -0.45662758 2.319
1.4647818 -0.4562338 2.3170002
1.4738985 -0.45564306 2.3140001
1.4836283 -0.45524922 2.312
1.4926927 -0.45465851 2.309
1.4906577 -0.45072037 2.289
1.4969599 -0.44934201 2.2820001
1.5018742 -0.44756985 2.273
1.5113615 -0.44717607 2.2710001
1.5094351 -0.4434348 2.2520001
1.5147531 -0.44185957 2.2440002
1.5267928 -0.44225335 2.2460001
1.5121542 -0.43496782 2.2090001
1.5240465 -0.43536165 2.2110002
1.5366516 -0.43595234 2.214
1.5429962 -0.43477091 2.2080002
1.5492834 -0.43358946 2.2020001
1.556222 -0.43260491 2.197
1.5595473 -0.43063584 2.187
1.565649 -0.42945439 2.181
1.5724163 -0.42846987 2.1760001
1.5776811 -0.42709154 2.1690001
1.5843436 -0.42610699 2.164
1.5931692 -0.42571318 2.1620002
1.6012342 -0.42512247 2.1590002
1.608524 -0.42433485 2.1550002
1.6165271 -0.42374411 2.1520002
1.6267693 -0.42374411 2.1520002
1.6370115 -0.42374411 2.1520002
1.6495502 -0.42433485 2.1550002
1.6628876 -0.42512247 2.1590002
1.6778129 -0.42630392 2.1650002
1.705271 -0.43063584 2.187
1.7470595 -0.43851212 2.227
1.7979105 -0.4485544 2.2780001
1.8444829 -0.45741525 2.3230002
1.9074588 -0.47021416 2.388
1.9662323 -0.4818317 2.447
2.0069771 -0.48892033 2.483
2.0415602 -0.49443376 2.5110002
2.0551465 -0.49482754 2.513
2.0679295 -0.4950245 2.5140002
2.0782399 -0.49463066 2.5120001
2.0885315 -0.49423689 2.5100002
2.098804 -0.49384305 2.5080001
2.1065323 -0.49285847 2.503
2.1142135 -0.49187398 2.4980001
2.1261024 -0.49187398 2.4980001
2.1362798 -0.49148014 2.4960001
2.1429951 -0.49029869 2.49
2.1496539 -0.48911729 2.4840002
2.1614764 -0.48911729 2.4840002
2.1724236 -0.48892033 2.483
2.1833618 -0.48872346 2.4820001
2.1987123 -0.48951107 2.4860001
2.2167685 -0.4908894 2.493
2.224164 -0.48990491 2.4880002
2.2369041 -0.49010178 2.4890001
2.2487502 -0.49010178 2.4890001
2.2605965 -0.49010178 2.4890001
2.2706168 -0.48970801 2.4870002
0 -0 0
0 -0 0
0 -0 0
0 -0 0
0 -0 0
0 -0 0
0 -0 0
0 -0 0
0 -0 0
0 -0 0
0 -0 0
0 -0 0
0 -0 0
0 -0 0
0 -0 0
0 -0 0
-0 -0 0
-0 -0 0
-0 -0 0
-0 -0 0
-0 -0 0
-0 -0 0
-2.9776297 -0.57471377 2.9910002
-2.9277265 -0.56779647 2.9550002
-2.9116905 -0.56741214 2.9530001
-2.8917482 -0.56625926 2.947
-2.8786988 -0.56645143 2.9480002
-2.8695269 -0.56741214 2.9530001
-2.8661091 -0.56952578 2.9640002
-2.8596997 -0.57106292 2.9720001
-2.8474698 -0.57144725 2.9740002
-2.8628488 -0.57740384 3.0050001
-0 -0 0
-0 -0 0
-0 -0 0
-0 -0 0
-0 -0 0
-0 -0 0
-0 -0 0
-0 -0 0
-3.0853367 -0.65157288 3.3910003
-3.0510952 -0.64772987 3.3710001
-3.0359519 -0.64792204 3.3720002
-3.0288589 -0.64984351 3.3820002
-3.0403781 -0.6558001 3.4130001
-3.0489442 -0.66118026 3.4410002
-3.0316856 -0.66098803 3.4400001
-3.0521281 -0.66905826 3.4820001
-3.0364277 -0.66925043 3.4830003
-3.0501964 -0.67597556 3.5180001
-3.0308659 -0.67539912 3.5150001
-3.0492947 -0.68327725 3.5560002
-3.0357811 -0.68404579 3.5600002
-3.0222294 -0.68481439 3.5640001
-3.0061102 -0.6850065 3.5650001
-2.9916582 -0.68558294 3.5680001
-2.9763441 -0.68596727 3.5700002
-2.9850502 -0.69192386 3.6010001
-2.9679117 -0.69192386 3.6010001
-2.9409399 -0.68961811 3.5890002
-2.9540012 -0.69672757 3.6260002
-2.9375536 -0.69691968 3.6270001
-2.950887 -0.70422131 3.6650002
-2.9422481 -0.70633495 3.6760001
-2.9343002 -0.70864069 3.6880002
-2.9175382 -0.70883286 3.6890001
-2.9007668 -0.70902497 3.6900001
-2.9168031 -0.71728736 3.7330003
-2.8998127 -0.71747953 3.7340002
-2.9021089 -0.72247535 3.7600002
-2.9003222 -0.72651041 3.7810001
-2.8990979 -0.73073769 3.8030002
-2.9135728 -0.73900002 3.8460002
-2.9118299 -0.7432273 3.8680003
-2.9270821 -0.75187391 3.9130001
-2.9255538 -0.7562933 3.9360001
-2.9415317 -0.76532429 3.9830003
-2.9225748 -0.76532429 3.9830003
-2.9036181 -0.76532429 3.9830003
-2.8846614 -0.76532429 3.9830003
-2.8484368 -0.76071274 3.9590001
-2.7967169 -0.75187391 3.9130001
-2.7461452 -0.7432273 3.8680003
-2.7122211 -0.73900002 3.8460002
-2.6637971 -0.73073769 3.8030002
-2.6303921 -0.72651041 3.7810001
-2.6123967 -0.72651041 3.7810001
-2.5944014 -0.72651041 3.7810001
-2.6057067 -0.7347728 3.8240001
-2.6023929 -0.73900002 3.8460002
-2.5988698 -0.7432273 3.8680003
-2.5804605 -0.7432273 3.8680003
-2.5772858 -0.74764669 3.8910003
-2.5587666 -0.74764669 3.8910003
-2.5402479 -0.74764669 3.8910003
-2.521729 -0.74764669 3.8910003
-2.5032101 -0.74764669 3.8910003
-2.4846914 -0.74764669 3.8910003
-2.4801164 -0.75187391 3.9130001
-2.475961 -0.7562933 3.9360001
-2.4572279 -0.7562933 3.9360001
-2.4384949 -0.7562933 3.9360001
-2.4339015 -0.76071274 3.9590001
-2.4150593 -0.76071274 3.9590001
-2.410743 -0.76532429 3.9830003
-2.4055974 -0.76974362 4.006
-2.3865314 -0.76974362 4.006
-2.3816488 -0.77435523 4.0300002
-2.3771238 -0.77915895 4.0550003
-2.3717794 -0.78377044 4.079
-2.3523657 -0.78377044 4.079
-2.3192255 -0.77915895 4.0550003
-2.2857466 -0.77435523 4.0300002
-2.253068 -0.76974362 4.006
-2.2340016 -0.76974362 4.006
-2.2149353 -0.76974362 4.006
-2.1832621 -0.76532429 3.9830003
-2.1643054 -0.76532429 3.9830003
-2.1453485 -0.76532429 3.9830003
-2.1386707 -0.76974362 4.006
-2.1196046 -0.76974362 4.006
-2.1131227 -0.77435523 4.0300002
-2.1069322 -0.77915895 4.0550003
-2.0876327 -0.77915895 4.0550003
-2.0805748 -0.78377044 4.079
-2.0864267 -0.79337782 4.1290002
-2.0797894 -0.7983737 4.1550002
-2.0724089 -0.80317742 4.1800003
-2.0525146 -0.80317742 4.1800003
-2.0204635 -0.7983737 4.1550002
-2.0006881 -0.7983737 4.1550002
-1.9809127 -0.7983737 4.1550002
-1.9611373 -0.7983737 4.1550002
-1.941362 -0.7983737 4.1550002
-1.9215866 -0.7983737 4.1550002
-1.9018112 -0.7983737 4.1550002
-1.882036 -0.7983737 4.1550002
-1.8506074 -0.79337782 4.1290002
-1.8309559 -0.79337782 4.1290002
-1.8003372 -0.7885741 4.1040001
-1.7699565 -0.78377044 4.079
-1.7505429 -0.78377044 4.079
-1.7311293 -0.78377044 4.079
-1.7222067 -0.7885741 4.1040001
-1.702674 -0.7885741 4.1040001
-1.6933945 -0.79337782 4.1290002
-1.6737429 -0.79337782 4.1290002
-1.664507 -0.7983737 4.1550002
-1.6546278 -0.80317742 4.1800003
-1.6452926 -0.80836535 4.2070003
-1.6252699 -0.80836535 4.2070003
-1.6052471 -0.80836535 4.2070003
-1.5950211 -0.81336123 4.2330003
-1.5849198 -0.81854922 4.2600002
-1.5646447 -0.81854922 4.2600002
-1.5541579 -0.82373714 4.2870002
-1.5638069 -0.83987761 4.3710003
-1.5528877 -0.8452577 4.3990002
-1.5521495 -0.85640228 4.4570003
-1.5621946 -0.87388772 4.5480003
-1.5615499 -0.88580084 4.6100001
-1.5720043 -0.90443921 4.7070003
-1.5604658 -0.91078007 4.7400002
-1.5710002 -0.93037909 4.842
-1.5706534 -0.94402158 4.9130001
-1.5702608 -0.9580484 4.9860001
-1.5580068 -0.96515787 5.0230002
-1.545706 -0.9724595 5.0610003
-1.5216187 -0.9724595 5.0610003
-1.4862871 -0.96515787 5.0230002
-1.4516085 -0.9580484 4.9860001
-0 -0 0
-0 -0 0
-0 -0 0
-0 -0 0
-0 -0 0
-0 -0 0
-0.69096035 -0.51495582 2.6800001
-0.67339689 -0.51130497 2.661
-0.65874577 -0.50976783 2.6530001
-0.63905627 -0.50419557 2.6240001
-0.62537366 -0.5032348 2.6190002
-0.6122067 -0.50265837 2.6160002
-0.59929752 -0.5022741 2.6140001
-0.5870809 -0.5024662 2.615
-0.57485485 -0.50265837 2.6160002
-0.5630492 -0.5032348 2.6190002
-0.55142516 -0.50400341 2.6230001
-0.53955764 -0.50457984 2.6260002
-0.52726012 -0.50477201 2.6270001
-0.51730448 -0.50726992 2.6400001
-0.5108577 -0.51341867 2.6720002
-0.49814057 -0.51341867 2.6720002
-0.48633173 -0.51437938 2.677
-0.4750061 -0.51591659 2.6850002
-0.46274355 -0.51649302 2.6880002
-0.45011762 -0.51668513 2.6890001
-0.43731958 -0.51668513 2.6890001
-0.42420578 -0.51630086 2.687
-0.41095787 -0.51572442 2.684
-0.39759019 -0.51495582 2.6800001
-0.38397339 -0.51380295 2.674
-0.37055257 -0.51284218 2.6690001
-0.35691115 -0.5114972 2.6620002
-0.34346569 -0.51034427 2.6560001
-0.33007735 -0.50919139 2.6500001
-0.31590754 -0.50669348 2.6370001
-0.30266675 -0.50554055 2.631
-0.29091668 -0.50688559 2.638
-0.27783376 -0.50592488 2.6330001
-0.26227942 -0.50016046 2.6030002
-0.24960268 -0.49958402 2.6000001
-0.23686324 -0.49881545 2.5960002
-0.22537263 -0.50073689 2.6060002
-0.20970069 -0.49305102 2.5660002
-0.19748805 -0.49305102 2.5660002
-0.18253163 -0.48574936 2.5280001
-0 -0 0
-0 -0 0
-0 -0 0
-0 -0 0
-0 -0 0
-0 -0 0
-0 -0 0
-0 -0 0
-0.039472293 -0.25824651 1.3440001
-0.033051033 -0.25805435 1.3430001
-0.02663929 -0.25786221 1.342
-0.020252161 -0.25786221 1.342
-0.013844368 -0.25747791 1.34
-0.0074611851 -0.25728577 1.3390001
-0.0010875198 -0.25709361 1.3380001
0.005276626 -0.25690147 1.337
0.011639959 -0.25690147 1.337
0.017989827 -0.25670934 1.3360001
0.024330176 -0.25651717 1.335
0.030661009 -0.25632504 1.3340001
0.037010062 -0.25632504 1.3340001
0.043359116 -0.25632504 1.3340001
0.049708173 -0.25632504 1.3340001
0.05605723 -0.25632504 1.3340001
0.062406287 -0.25632504 1.3340001
0.068755336 -0.25632504 1.3340001
0.075104393 -0.25632504 1.3340001
0.081514508 -0.25651717 1.335
0.087868318 -0.25651717 1.335
0.094292715 -0.25670934 1.3360001
0.10065129 -0.25670934 1.3360001
0.10708996 -0.25690147 1.337
0.11345328 -0.25690147 1.337
0.11990625 -0.25709361 1.3380001
0.12627433 -0.25709361 1.3380001
0.13264243 -0.25709361 1.3380001
0.13901052 -0.25709361 1.3380001
0.1453786 -0.25709361 1.3380001
0.15174671 -0.25709361 1.3380001
0.15811479 -0.25709361 1.3380001
0.16448289 -0.25709361 1.3380001
0.17097868 -0.25728577 1.3390001
0.17735153 -0.25728577 1.3390001
0.18372437 -0.25728577 1.3390001
0.19009724 -0.25728577 1.3390001
0.19661681 -0.25747791 1.34
0.20299441 -0.25747791 1.34
0.20937203 -0.25747791 1.34
0.21574965 -0.25747791 1.34
0.22212724 -0.25747791 1.34
0.2286754 -0.25767007 1.3410001
0.23505777 -0.25767007 1.3410001
0.24162018 -0.25786221 1.342
0.24819212 -0.25805435 1.3430001
0.25477359 -0.25824651 1.3440001
0.26117024 -0.25824651 1.3440001
0.26756686 -0.25824651 1.3440001
0.27416736 -0.25843865 1.345
0.28077739 -0.25863081 1.3460001
0.28718352 -0.25863081 1.3460001
0.29380783 -0.25882295 1.3470001
0.30021876 -0.25882295 1.3470001
0.30685732 -0.25901508 1.348
0.31350541 -0.25920725 1.3490001
0.32040018 -0.25959155 1.3510001
0.32707205 -0.25978369 1.3520001
0.33375344 -0.25997582 1.353
0.34044436 -0.26016799 1.3540001
0.34740102 -0.26055229 1.3560001
0.35411572 -0.26074442 1.3570001
0.36083993 -0.26093656 1.358
0.36757374 -0.26112872 1.3590001
0.37431696 -0.26132086 1.36
0.38106981 -0.26151302 1.3610001
0.38783211 -0.26170516 1.3620001
0.39489344 -0.26208946 1.3640001
0 -0 0
0 -0 0
0 -0 0
0 -0 0
0 -0 0
0 -0 0
0 -0 0
1.0518806 -0.61698627 3.2110002
1.065169 -0.61583334 3.2050002
1.0794116 -0.61525691 3.2020001
1.0905488 -0.61295116 3.1900001
1.1008786 -0.61026108 3.1760001
1.1149404 -0.60968465 3.1730001
1.1286174 -0.60891604 3.1690001
1.1422564 -0.60814744 3.1650002
1.1547604 -0.60680246 3.1580002
1.1542329 -0.59873223 3.1160002
1.158558 -0.59335208 3.0880001
1.1534983 -0.58336043 3.0360003
1.143327 -0.57106292 2.9720001
1.1290414 -0.55703616 2.8990002
1.110119 -0.54108793 2.8160002
1.1011786 -0.53032768 2.7600002
1.0888791 -0.51822233 2.697
1.0808821 -0.50842279 2.6460001
1.0765319 -0.50054473 2.605
1.0805699 -0.49670178 2.585
1.0776531 -0.48978445 2.549
1.0876471 -0.48882374 2.5440001
1.0958644 -0.4870944 2.5350001
1.1053072 -0.4859415 2.529
1.114251 -0.48459649 2.5220001
1.1226819 -0.48305932 2.5140002
1.1314876 -0.48171428 2.5070002
1.1242636 -0.47364408 2.4650002
1.134613 -0.47306764 2.4620001
1.1421402 -0.4713383 2.4530001
1.1509928 -0.4701854 2.447
1.169291 -0.47287551 2.4610002
1.1795642 -0.47229904 2.4580002
1.1898088 -0.4717226 2.4550002
1.2034508 -0.47249117 2.4590001
1.2136717 -0.47191474 2.4560001
1.2148834 -0.46787965 2.4350002
1.2254652 -0.46749535 2.4330001
1.2380618 -0.46787965 2.4350002
1.2460585 -0.46653461 2.4280002
1.2565784 -0.46615031 2.4260001
1.2676021 -0.46595818 2.4250002
1.2770336 -0.46518955 2.421
1.2821693 -0.4628838 2.4090002
1.2930979 -0.46269166 2.4080002
1.2855967 -0.4559665 2.3730001
1.2941582 -0.45500574 2.368
1.2999158 -0.45308426 2.358
1.3111384 -0.45308426 2.358
1.3206787 -0.45250779 2.355
1.3318871 -0.45250779 2.355
1.3408142 -0.45173922 2.3510001
1.3502785 -0.45116279 2.348
1.359714 -0.45058632 2.345
1.369121 -0.45000988 2.342
1.3784996 -0.44943348 2.3390002
1.3878496 -0.44885704 2.3360002
1.3971709 -0.4482806 2.3330002
1.4106891 -0.44904917 2.3370001
1.420595 -0.44866484 2.335
1.4255767 -0.44674337 2.325
1.4360245 -0.44655123 2.3240001
1.4445947 -0.44578266 2.3200002
1.4543816 -0.44539836 2.3180001
1.4641497 -0.44501409 2.3160002
1.4726247 -0.44424546 2.312
1.482345 -0.44386119 2.3100002
1.4913998 -0.44328475 2.3070002
1.491309 -0.44001824 2.2900002
1.4969599 -0.43848103 2.2820001
1.4985706 -0.43579099 2.2680001
1.514689 -0.43732813 2.276
1.5101053 -0.43290874 2.253
1.5147531 -0.43117943 2.2440002
1.526113 -0.43137157 2.2450001
1.5326905 -0.4302187 2.2390001
1.5330075 -0.42733648 2.2240002
1.540122 -0.42637575 2.2190001
1.5450926 -0.42483857 2.2110002
1.5492834 -0.42310923 2.2020001
1.556222 -0.42214847 2.197
1.5581212 -0.41984272 2.1850002
1.5663669 -0.41926628 2.1820002
1.5731388 -0.41830552 2.177
1.5682251 -0.41427043 2.1560001
1.5740937 -0.41311756 2.1500001
1.5924323 -0.41523117 2.161
1.6004924 -0.4146547 2.158
1.6077775 -0.41388613 2.154
1.6157757 -0.41330969 2.151
1.6252574 -0.41311756 2.1500001
1.6362507 -0.41330969 2.151
1.6480192 -0.41369399 2.1530001
1.6621172 -0.4146547 2.158
1.6793628 -0.41638404 2.1670001
1.7060509 -0.42041919 2.1880002
1.7384301 -0.42579928 2.2160001
1.7963319 -0.43732813 2.276
1.8444829 -0.44635913 2.3230002
1.9066601 -0.45865655 2.3870001
1.9646254 -0.46980113 2.4450002
2.0045521 -0.47652626 2.48
2.0399339 -0.48209855 2.5090001
2.0526931 -0.48229074 2.5100002
2.0654619 -0.48248288 2.5110002
2.075758 -0.48209855 2.5090001
2.0860353 -0.48171428 2.5070002
2.0954566 -0.48113784 2.5040002
2.1031661 -0.48017707 2.4990001
2.1108279 -0.47921637 2.4940002
2.1022711 -0.47460479 2.47
2.111459 -0.47402835 2.467
2.1214793 -0.47364408 2.4650002
2.1375382 -0.47460479 2.47
2.1501644 -0.47479698 2.4710002
2.1724236 -0.47710273 2.483
2.182482 -0.47671846 2.4810002
2.196059 -0.47710273 2.483
2.2105441 -0.47767916 2.4860001
2.224164 -0.47806346 2.4880002
2.2378027 -0.47844774 2.49
2.2496536 -0.47844774 2.49
2.2605965 -0.4782556 2.4890001
2.2806597 -0.47998494 2.4980001
0 -0 0
0 -0 0
0 -0 0
0 -0 0
0 -0 0
0 -0 0
0 -0 0
0 -0 0
0 -0 0
0 -0 0
0 -0 0
0 -0 0
0 -0 0
0 -0 0
0 -0 0
0 -0 0
-0 -0 0
-0 -0 0
-0 -0 0
-0 -0 0
-0 -0 0
-0 -0 0
-3.004509 -0.56553787 3.0180001
-2.960422 -0.5599162 2.9880002
-2.945215 -0.55972886 2.9870002
-2.8917482 -0.55223328 2.947
-2.8806517 -0.55279547 2.95
-2.8802161 -0.55541891 2.9640002
-2.86901 -0.5559811 2.9670002
-2.8625865 -0.55748016 2.9750001
-2.8474698 -0.55729282 2.9740002
-2.8390315 -0.55841714 2.9800003
-0 -0 0
-0 -0 0
-0 -0 0
-0 -0 0
-0 -0 0
-0 -0 0
-0 -0 0
-0 -0 0
-0 -0 0
-3.0529056 -0.63206071 3.3730001
-3.0368524 -0.63206071 3.3730001
-3.0530396 -0.6388067 3.4090002
-3.0377054 -0.6389941 3.4100001
-3.0498302 -0.6449905 3.4420002
-3.036092 -0.64555269 3.4450002
-3.0468686 -0.6513617 3.4760001
-3.0355558 -0.65248603 3.4820001
-3.0155153 -0.6517365 3.4780002
-3.0291414 -0.65829509 3.5130002
-3.0492947 -0.66635281 3.5560002
-3.0357811 -0.66710234 3.5600002
-3.0205336 -0.66747713 3.5620003
-3.0069535 -0.66822666 3.5660002
-2.9916582 -0.66860139 3.5680001
-2.9763441 -0.66897619 3.5700002
-2.9618397 -0.66953838 3.5730002
-2.9473071 -0.67010057 3.5760002
-2.9360235 -0.67141229 3.5830002
-2.9360783 -0.67534739 3.6040001
-2.9197357 -0.67553484 3.6050003
-2.9041882 -0.67590958 3.6070001
-2.9174359 -0.68303037 3.6450002
-2.901679 -0.6834051 3.6470001
-2.918329 -0.69146281 3.6900001
-2.9015529 -0.69165021 3.6910002
-2.8824234 -0.69127542 3.6890001
-2.8990362 -0.69952053 3.7330003
-2.9021089 -0.70458001 3.7600002
-2.9003222 -0.70851511 3.7810001
-2.9151065 -0.71657282 3.8240001
-2.9135728 -0.72069538 3.8460002
-2.9291441 -0.72912788 3.8910003
-2.9270821 -0.73325038 3.9130001
-2.9255538 -0.73756033 3.9360001
-2.9415317 -0.74636757 3.9830003
-2.9394512 -0.75067747 4.006
-2.9203849 -0.75067747 4.006
-2.9013188 -0.75067747 4.006
-2.8657045 -0.74636757 3.9830003
-2.8131557 -0.73756033 3.9360001
-2.7780936 -0.73325038 3.9130001
-2.7277358 -0.72481793 3.8680003
-2.6939163 -0.72069538 3.8460002
-2.675612 -0.72069538 3.8460002
-2.6421065 -0.71657282 3.8240001
-2.6390023 -0.72069538 3.8460002
-2.6356888 -0.72481793 3.8680003
-2.6328423 -0.72912788 3.8910003
-2.6291049 -0.73325038 3.9130001
-2.6258254 -0.73756033 3.9360001
-2.6070921 -0.73756033 3.9360001
-2.5883591 -0.73756033 3.9360001
-2.5546107 -0.73325038 3.9130001
-2.5359869 -0.73325038 3.9130001
-2.5173633 -0.73325038 3.9130001
-2.49874 -0.73325038 3.9130001
-2.4801164 -0.73325038 3.9130001
-2.4614925 -0.73325038 3.9130001
-2.4572279 -0.73756033 3.9360001
-2.4527442 -0.74187022 3.9590001
-2.4339015 -0.74187022 3.9590001
-2.4150593 -0.74187022 3.9590001
-2.410743 -0.74636757 3.9830003
-2.4055974 -0.75067747 4.006
-2.4008293 -0.75517482 4.0300002
-2.3964233 -0.75985956 4.0550003
-2.3911929 -0.76435679 4.079
-2.3863161 -0.76904154 4.1040001
-2.3667834 -0.76904154 4.1040001
-2.3472507 -0.76904154 4.1040001
-2.3135383 -0.76435679 4.079
-2.2941248 -0.76435679 4.079
-2.2613273 -0.75985956 4.0550003
-2.2420278 -0.75985956 4.0550003
-2.2227287 -0.75985956 4.0550003
-2.2034292 -0.75985956 4.0550003
-2.1706638 -0.75517482 4.0300002
-2.1514835 -0.75517482 4.0300002
-2.1323032 -0.75517482 4.0300002
-2.1131227 -0.75517482 4.0300002
-2.0939424 -0.75517482 4.0300002
-2.0747619 -0.75517482 4.0300002
-2.0433395 -0.75067747 4.006
-2.036401 -0.75517482 4.0300002
-2.0297344 -0.75985956 4.0550003
-2.0104351 -0.75985956 4.0550003
-1.9911355 -0.75985956 4.0550003
-1.9718362 -0.75985956 4.0550003
-1.9525368 -0.75985956 4.0550003
-1.9332373 -0.75985956 4.0550003
-1.9139379 -0.75985956 4.0550003
-1.8946385 -0.75985956 4.0550003
-1.8864384 -0.76435679 4.079
-1.8670248 -0.76435679 4.079
-1.8476112 -0.76435679 4.079
-1.8281974 -0.76435679 4.079
-1.8087838 -0.76435679 4.079
-1.8003372 -0.76904154 4.1040001
-1.7699565 -0.76435679 4.079
-1.7505429 -0.76435679 4.079
-1.7311293 -0.76435679 4.079
-1.7117156 -0.76435679 4.079
-1.702674 -0.76904154 4.1040001
-1.6831415 -0.76904154 4.1040001
-1.6636088 -0.76904154 4.1040001
-1.6540914 -0.77372628 4.1290002
-1.6447318 -0.77859837 4.1550002
-1.6249563 -0.77859837 4.1550002
-1.6252699 -0.7883426 4.2070003
-1.6052471 -0.7883426 4.2070003
-1.5852242 -0.7883426 4.2070003
-1.5652014 -0.7883426 4.2070003
-1.5547279 -0.79321468 4.2330003
-1.5443696 -0.79827416 4.2600002
-1.5337542 -0.80333364 4.2870002
-1.5327661 -0.81363994 4.342
-1.5222001 -0.81907427 4.3710003
-1.530937 -0.83518964 4.4570003
-1.5300479 -0.84643292 4.5170002
-1.5396091 -0.86386001 4.6100001
-1.5387379 -0.87585288 4.6740003
-1.5486131 -0.89440435 4.7730002
-1.5479553 -0.90733409 4.842
-1.535933 -0.91389275 4.8770003
-1.5238875 -0.92063868 4.9130001
-1.5114995 -0.92738467 4.9490004
-1.4879453 -0.92738467 4.9490004
-1.4643909 -0.92738467 4.9490004
-1.4408365 -0.92738467 4.9490004
-0 -0 0
-0 -0 0
-0 -0 0
-0 -0 0
-0 -0 0
-0 -0 0
-0.69044477 -0.50182587 2.6780002
-0.67314386 -0.49845284 2.6600001
-0.65824914 -0.49676636 2.651
-0.63905627 -0.49170688 2.6240001
-0.62513483 -0.49058253 2.618
-0.6122067 -0.49020779 2.6160002
-0.59929752 -0.489833 2.6140001
-0.58685642 -0.489833 2.6140001
-0.57463509 -0.49002036 2.615
-0.5630492 -0.49076995 2.6190002
-0.55142516 -0.49151951 2.6230001
-0.53955764 -0.49208167 2.6260002
-0.52705944 -0.49208167 2.6260002
-0.51710856 -0.49451771 2.6390002
-0.51104885 -0.50088888 2.6730001
-0.49832699 -0.50088888 2.6730001
-0.48651344 -0.50182587 2.6780002
-0.4750061 -0.50313759 2.6850002
-0.46274355 -0.50369978 2.6880002
-0.44995025 -0.50369978 2.6880002
-0.43715695 -0.50369978 2.6880002
-0.42389005 -0.50313759 2.6850002
-0.41065165 -0.5025754 2.6820002
-0.39714512 -0.50163847 2.677
-0.38368621 -0.50070155 2.6720002
-0.37013608 -0.49957719 2.6660001
-0.35664299 -0.49845284 2.6600001
-0.34307775 -0.49714115 2.6530001
-0.32970369 -0.4960168 2.6470001
-0.31590754 -0.49414292 2.6370001
-0.30266675 -0.4930186 2.631
-0.29058588 -0.49376819 2.6350002
-0.2775172 -0.4928312 2.6300001
-0.26217869 -0.48758435 2.6020002
-0.24960268 -0.48720956 2.6000001
-0.23595083 -0.48458615 2.5860002
-0.22286463 -0.48289964 2.5770001
-0.2086383 -0.47840235 2.5530002
-0.19487128 -0.47446716 2.5320001
-0.18253163 -0.4737176 2.5280001
-0 -0 0
-0 -0 0
-0 -0 0
-0 -0 0
-0 -0 0
-0 -0 0
-0 -0 0
-0 -0 0
-0.039472293 -0.25184989 1.3440001
-0.033051033 -0.25166249 1.3430001
-0.02663929 -0.2514751 1.342
-0.020252161 -0.2514751 1.342
-0.013844368 -0.2511003 1.34
-0.0074667567 -0.2511003 1.34
-0.0010883326 -0.25091293 1.3390001
0.0052805729 -0.25072554 1.3380001
0.011639959 -0.25053814 1.337
0.017989827 -0.25035077 1.3360001
0.024330176 -0.25016338 1.335
0.030683991 -0.25016338 1.335
0.037010062 -0.24997599 1.3340001
0.043359116 -0.24997599 1.3340001
0.049708173 -0.24997599 1.3340001
0.05605723 -0.24997599 1.3340001
0.062406287 -0.24997599 1.3340001
0.068755336 -0.24997599 1.3340001
0.07516069 -0.25016338 1.335
0.081514508 -0.25016338 1.335
0.087934144 -0.25035077 1.3360001
0.094292715 -0.25035077 1.3360001
0.10072663 -0.25053814 1.337
0.10708996 -0.25053814 1.337
0.11345328 -0.25053814 1.337
0.11990625 -0.25072554 1.3380001
0.12627433 -0.25072554 1.3380001
0.13264243 -0.25072554 1.3380001
0.13901052 -0.25072554 1.3380001
0.1453786 -0.25072554 1.3380001
0.15174671 -0.25072554 1.3380001
0.15811479 -0.25072554 1.3380001
0.16448289 -0.25072554 1.3380001
0.17097868 -0.25091293 1.3390001
0.17735153 -0.25091293 1.3390001
0.18372437 -0.25091293 1.3390001
0.19009724 -0.25091293 1.3390001
0.19661681 -0.2511003 1.34
0.20299441 -0.2511003 1.34
0.20937203 -0.2511003 1.34
0.21574965 -0.2511003 1.34
0.22212724 -0.2511003 1.34
0.2286754 -0.2512877 1.3410001
0.23505777 -0.2512877 1.3410001
0.24144015 -0.2512877 1.3410001
0.2480073 -0.2514751 1.342
0.25458401 -0.25166249 1.3430001
0.2609759 -0.25166249 1.3430001
0.26736778 -0.25166249 1.3430001
0.27396354 -0.25184989 1.3440001
0.28056878 -0.25203726 1.345
0.28697017 -0.25203726 1.345
0.29358971 -0.25222465 1.3460001
0.30021876 -0.25241205 1.3470001
0.30685732 -0.25259942 1.348
0.31350541 -0.25278682 1.3490001
0.32016301 -0.25297418 1.35
0.32683012 -0.25316158 1.3510001
0.33375344 -0.25353637 1.353
0.34044436 -0.25372377 1.3540001
0.34714481 -0.25391114 1.355
0.35411572 -0.25428593 1.3570001
0.36110565 -0.2546607 1.3590001
0.36784419 -0.25484806 1.36
0.37459221 -0.25503546 1.3610001
0.3813498 -0.25522286 1.3620001
0.38783211 -0.25522286 1.3620001
0.39489344 -0.25559765 1.3640001
0 -0 0
0 -0 0
0 -0 0
0 -0 0
0 -0 0
0 -0 0
0 -0 0
1.051553 -0.60151643 3.21
1.0655013 -0.60076684 3.2060001
1.0800859 -0.6003921 3.2040002
1.0884976 -0.59664434 3.1840003
1.1005319 -0.59495783 3.1750002
1.114589 -0.5943957 3.1720002
1.1289735 -0.5940209 3.1700001
1.1426172 -0.59327132 3.1660001
1.1558573 -0.59233439 3.1610003
1.1542329 -0.58390194 3.1160002
1.1596836 -0.5792172 3.0910001
1.155398 -0.56984782 3.0410001
1.1410189 -0.55579364 2.9660001
1.1259258 -0.54173952 2.891
1.1109073 -0.5280602 2.8180001
1.1027746 -0.51794124 2.7640002
1.0896866 -0.50576103 2.6990001
1.081699 -0.49620423 2.6480002
1.0773584 -0.48852128 2.6070001
1.0801519 -0.48421136 2.5840001
1.0776531 -0.47765276 2.549
1.0880747 -0.4769032 2.5450001
1.0958644 -0.47502932 2.5350001
1.1053072 -0.473905 2.529
1.1138092 -0.47240591 2.5210001
1.1217886 -0.4707194 2.5120001
1.1310363 -0.46959504 2.506
1.1411389 -0.46884552 2.5020001
1.1479777 -0.46678424 2.4910002
1.1565741 -0.46547255 2.4840002
1.1655743 -0.4643482 2.4780002
1.1721417 -0.46228689 2.467
1.1824435 -0.46172479 2.4640002
1.1927167 -0.4611626 2.4610002
1.2049191 -0.46134999 2.4620001
1.2151542 -0.4607878 2.4590001
1.223864 -0.45966348 2.4530001
1.2335242 -0.45891392 2.4490001
1.244163 -0.45853913 2.447
1.2537565 -0.4577896 2.4430001
1.263312 -0.45704004 2.4390001
1.2665566 -0.45404184 2.4230001
1.2754512 -0.45310491 2.4180002
1.2821693 -0.4514184 2.4090002
1.2925608 -0.45104361 2.4070001
1.2877638 -0.44542196 2.3770001
1.2952514 -0.44411027 2.3700001
1.3054286 -0.44373548 2.368
1.3161428 -0.44354808 2.3670001
1.3240435 -0.44242376 2.3610001
1.3330183 -0.4416742 2.3570001
1.3425252 -0.44111204 2.3540001
1.3520037 -0.44054988 2.3510001
1.3614535 -0.43998772 2.348
1.3708748 -0.43942553 2.345
1.3796782 -0.438676 2.3410001
1.3890377 -0.43811384 2.3380001
1.3983685 -0.43755165 2.335
1.4076709 -0.43698949 2.332
1.4175532 -0.43661472 2.3300002
1.4261899 -0.43586519 2.3260002
1.4360245 -0.4354904 2.3240001
1.4445947 -0.43474084 2.3200002
1.4537542 -0.43417868 2.3170002
1.4628853 -0.43361652 2.3140001
1.4719877 -0.43305436 2.3110001
1.4817032 -0.43267956 2.309
1.4926927 -0.43267956 2.309
1.4984725 -0.43118048 2.3010001
1.4917122 -0.426121 2.2740002
1.5071603 -0.42743272 2.2810001
1.514689 -0.42649573 2.276
1.519489 -0.42480928 2.2670002
1.514078 -0.42031193 2.243
1.5254333 -0.42049935 2.2440002
1.5285833 -0.41843805 2.233
1.5330075 -0.41675159 2.2240002
1.5408161 -0.41600201 2.22
1.5402007 -0.41300377 2.204
1.5464692 -0.41187948 2.1980002
1.5533886 -0.41094252 2.1930001
1.5588342 -0.40963081 2.1860001
1.5670848 -0.40906864 2.1830001
1.5543507 -0.40307221 2.151
1.566043 -0.403447 2.1530001
1.570433 -0.40194792 2.1450002
1.5828526 -0.40251005 2.148
1.5915927 -0.40213528 2.1460001
1.5965813 -0.40082356 2.1390002
1.6142735 -0.40269744 2.1490002
1.6237454 -0.40251005 2.148
1.6339686 -0.40251005 2.148
1.6457229 -0.40288484 2.1500001
1.661347 -0.40419653 2.1570001
1.6793628 -0.40607044 2.1670001
1.705271 -0.4098182 2.187
1.7392145 -0.41543984 2.217
1.7971212 -0.42668316 2.2770002
1.8444829 -0.43530303 2.3230002
1.9058614 -0.44710848 2.3860002
1.9638218 -0.45797697 2.444
2.0037439 -0.46453556 2.4790001
2.0399339 -0.47015724 2.5090001
2.0526931 -0.47034463 2.5100002
2.0646393 -0.47034463 2.5100002
2.0749307 -0.46996984 2.5080001
2.0843709 -0.46940768 2.5050001
2.0929461 -0.46865815 2.5010002
2.1006413 -0.46772116 2.4960001
2.1074424 -0.46659684 2.49
2.1056757 -0.46359867 2.4740002
2.1140268 -0.46284908 2.47
2.1232004 -0.46228689 2.467
2.136673 -0.46266168 2.4690001
2.1588659 -0.46491036 2.4810002
2.1627996 -0.46322387 2.4720001
2.182482 -0.46491036 2.4810002
2.1978278 -0.46565992 2.4850001
2.2123225 -0.46622208 2.4880002
2.2357855 -0.46865815 2.5010002
2.2396002 -0.46697164 2.4920001
2.2514606 -0.46697164 2.4920001
2.262413 -0.46678424 2.4910002
2.2706168 -0.46603471 2.4870002
2.2806177 -0.46565992 2.4850001
0 -0 0
0 -0 0
0 -0 0
0 -0 0
0 -0 0
0 -0 0
0 -0 0
0 -0 0
0 -0 0
0 -0 0
0 -0 0
0 -0 0
0 -0 0
0 -0 0
0 -0 0
-0 -0 0
-0 -0 0
-0 -0 0
-0 -0 0
-0 -0 0
-0 -0 0
-3.0323839 -0.55628759 3.0460002
-2.990145 -0.55117393 3.0180001
-2.9442289 -0.54532981 2.9860001
-2.9270735 -0.54478192 2.983
-2.9138527 -0.54496461 2.9840002
-2.8899333 -0.54313833 2.9740002
-2.8786798 -0.54368621 2.9770002
-2.865473 -0.54386878 2.9780002
-2.8484273 -0.54332089 2.9750001
-2.8390315 -0.5442341 2.9800003
-0 -0 0
-0 -0 0
-0 -0 0
-0 -0 0
-0 -0 0
-0 -0 0
-0 -0 0
-0 -0 0
-3.0716887 -0.61655509 3.3760002
-3.0547159 -0.61637247 3.3750002
-3.0431547 -0.61728561 3.3800001
-3.0548308 -0.6229471 3.4110003
-3.0403781 -0.62331235 3.4130001
-3.0657794 -0.63189596 3.4600003
-3.047549 -0.63153064 3.4580002
-3.0459921 -0.63463533 3.4750001
-3.0242226 -0.63353956 3.4690001
-3.0129144 -0.63463533 3.4750001
-3.0627699 -0.64869779 3.5520003
-3.0510094 -0.64979357 3.5580001
-3.0323701 -0.64942831 3.5560002
-3.0179896 -0.64997619 3.5590003
-3.0069535 -0.65125459 3.5660002
-2.9916582 -0.65161985 3.5680001
-2.9763441 -0.65198511 3.5700002
-2.9610109 -0.65235037 3.5720003
-2.9464829 -0.65289825 3.5750003
-2.9335651 -0.6538114 3.5800002
-2.9140823 -0.65326351 3.5770001
-2.8986778 -0.65362877 3.5790002
-2.9041882 -0.65874237 3.6070001
-2.8878214 -0.658925 3.6080003
-2.901679 -0.66604751 3.6470001
-2.8795764 -0.66495174 3.6410003
-2.8669639 -0.66604751 3.6470001
-2.8824234 -0.67371792 3.6890001
-2.895153 -0.68084043 3.7280002
-2.9021089 -0.68668461 3.7600002
-2.9003222 -0.69051981 3.7810001
-2.9151065 -0.69837284 3.8240001
-2.9135728 -0.70239067 3.8460002
-2.9118299 -0.7064085 3.8680003
-2.9270821 -0.71462679 3.9130001
-2.9255538 -0.71882725 3.9360001
-2.9238069 -0.72302771 3.9590001
-2.9225748 -0.72741085 3.9830003
-2.9036181 -0.72741085 3.9830003
-2.8846614 -0.72741085 3.9830003
-2.8657045 -0.72741085 3.9830003
-2.8295944 -0.72302771 3.9590001
-2.7944229 -0.71882725 3.9360001
-2.7756896 -0.71882725 3.9360001
-2.7408462 -0.71462679 3.9130001
-2.7069178 -0.71060896 3.8910003
-2.6883988 -0.71060896 3.8910003
-2.6849756 -0.71462679 3.9130001
-2.6820245 -0.71882725 3.9360001
-2.6788542 -0.72302771 3.9590001
-2.6600118 -0.72302771 3.9590001
-2.6571805 -0.72741085 3.9830003
-2.6382239 -0.72741085 3.9830003
-2.6034842 -0.72302771 3.9590001
-2.5846419 -0.72302771 3.9590001
-2.5508931 -0.71882725 3.9360001
-2.53216 -0.71882725 3.9360001
-2.49874 -0.71462679 3.9130001
-2.494694 -0.71882725 3.9360001
-2.4614925 -0.71462679 3.9130001
-2.4572279 -0.71882725 3.9360001
-2.4384949 -0.71882725 3.9360001
-2.4339015 -0.72302771 3.9590001
-2.4150593 -0.72302771 3.9590001
-2.410743 -0.72741085 3.9830003
-2.4055974 -0.73161125 4.006
-2.4008293 -0.7359944 4.0300002
-2.3964233 -0.74056011 4.0550003
-2.3911929 -0.74494314 4.079
-2.3863161 -0.74950892 4.1040001
-2.3667834 -0.74950892 4.1040001
-2.3472507 -0.74950892 4.1040001
-2.3135383 -0.74494314 4.079
-2.2941248 -0.74494314 4.079
-2.2747111 -0.74494314 4.079
-2.2552974 -0.74494314 4.079
-2.2495875 -0.74950892 4.1040001
-2.2164702 -0.74494314 4.079
-2.1970565 -0.74494314 4.079
-2.1776431 -0.74494314 4.079
-2.1582294 -0.74494314 4.079
-2.1262314 -0.74056011 4.0550003
-2.1069322 -0.74056011 4.0550003
-2.0747619 -0.7359944 4.0300002
-2.0433395 -0.73161125 4.006
-2.0242736 -0.73161125 4.006
-1.9936947 -0.72741085 3.9830003
-1.974738 -0.72741085 3.9830003
-1.9557812 -0.72741085 3.9830003
-1.9368246 -0.72741085 3.9830003
-1.9178678 -0.72741085 3.9830003
-1.898911 -0.72741085 3.9830003
-1.8799543 -0.72741085 3.9830003
-1.8717439 -0.73161125 4.006
-1.8526776 -0.73161125 4.006
-1.8445967 -0.7359944 4.0300002
-1.8367403 -0.74056011 4.0550003
-1.8174409 -0.74056011 4.0550003
-1.8087838 -0.74494314 4.079
-1.7893702 -0.74494314 4.079
-1.7699565 -0.74494314 4.079
-1.7505429 -0.74494314 4.079
-1.7311293 -0.74494314 4.079
-1.7117156 -0.74494314 4.079
-1.692302 -0.74494314 4.079
-1.6728884 -0.74494314 4.079
-1.6636088 -0.74950892 4.1040001
-1.6540914 -0.75407463 4.1290002
-1.6447318 -0.75882298 4.1550002
-1.6347334 -0.76338875 4.1800003
-1.6252699 -0.76831973 4.2070003
-1.6151679 -0.77306807 4.2330003
-1.5950211 -0.77306807 4.2330003
-1.5849198 -0.77799904 4.2600002
-1.5646447 -0.77799904 4.2600002
-1.5541579 -0.78293002 4.2870002
-1.5337542 -0.78293002 4.2870002
-1.5228819 -0.78786099 4.3140001
-1.5222001 -0.79827082 4.3710003
-1.5209756 -0.80868065 4.428
-1.5198859 -0.81945574 4.487
-1.5292559 -0.83625758 4.579
-1.528203 -0.84776324 4.6420002
-1.5271993 -0.85963416 4.7070003
-1.5258964 -0.87168765 4.7730002
-1.5142025 -0.87807965 4.8080001
-1.501865 -0.88428897 4.842
-1.4895097 -0.89068109 4.8770003
-1.4662981 -0.89068109 4.8770003
-1.4327298 -0.88428897 4.842
-0 -0 0
-0 -0 0
-0 -0 0
-0 -0 0
-0 -0 0
-0 -0 0
-0 -0 0
-0.68967128 -0.48853227 2.6750002
-0.67314386 -0.48579282 2.6600001
-0.6517933 -0.47940081 2.6250002
-0.63856924 -0.47885293 2.6220002
-0.62489605 -0.47793978 2.6170001
-0.61197263 -0.4775745 2.615
-0.59906828 -0.47720927 2.6130002
-0.58685642 -0.47739187 2.6140001
-0.57463509 -0.4775745 2.615
-0.56283414 -0.47812238 2.618
-0.55121493 -0.47885293 2.6220002
-0.53955764 -0.47958344 2.6260002
-0.52705944 -0.47958344 2.6260002
-0.51475716 -0.47976607 2.6270001
-0.51104885 -0.48816699 2.6730001
-0.49814057 -0.48798436 2.6720002
-0.48742178 -0.48999327 2.6830001
-0.4750061 -0.49035856 2.6850002
-0.46274355 -0.49090645 2.6880002
-0.44995025 -0.49090645 2.6880002
-0.43699428 -0.49072379 2.687
-0.42389005 -0.49035856 2.6850002
-0.41049856 -0.48962805 2.6810002
-0.39699677 -0.48871487 2.6760001
-0.38339901 -0.4876191 2.6700001
-0.36985838 -0.48652333 2.664
-0.35650894 -0.48561019 2.6590002
-0.34281909 -0.48414913 2.651
-0.32957914 -0.48323601 2.6460001
-0.31590754 -0.48159236 2.6370001
-0.30266675 -0.48049656 2.631
-0.28948307 -0.47940081 2.6250002
-0.27646202 -0.47848767 2.6200001
-0.26258171 -0.47593087 2.6060002
-0.24979468 -0.47520036 2.6020002
-0.23649827 -0.47337404 2.592
-0.22277816 -0.47045201 2.5760002
-0.20888346 -0.46679944 2.5560002
-0.19448647 -0.46150318 2.5270002
-0.18231502 -0.46113792 2.5250001
-0 -0 0
-0 -0 0
-0 -0 0
-0 -0 0
-0 -0 0
-0 -0 0
-0 -0 0
-0 -0 0
-0.039442923 -0.24527058 1.3430001
-0.033051033 -0.24527058 1.3430001
-0.02663929 -0.24508795 1.342
-0.020252161 -0.24508795 1.342
-0.0138547 -0.24490532 1.3410001
-0.0074667567 -0.24472269 1.34
-0.0010883326 -0.24454008 1.3390001
0.0052805729 -0.24435744 1.3380001
0.011639959 -0.24417481 1.337
0.017989827 -0.24399218 1.3360001
0.024330176 -0.24380955 1.335
0.030683991 -0.24380955 1.335
0.037010062 -0.24362694 1.3340001
0.043359116 -0.24362694 1.3340001
0.049708173 -0.24362694 1.3340001
0.05605723 -0.24362694 1.3340001
0.062406287 -0.24362694 1.3340001
0.068755336 -0.24362694 1.3340001
0.07516069 -0.24380955 1.335
0.081514508 -0.24380955 1.335
0.087934144 -0.24399218 1.3360001
0.094363287 -0.24417481 1.337
0.10072663 -0.24417481 1.337
0.10708996 -0.24417481 1.337
0.11345328 -0.24417481 1.337
0.11990625 -0.24435744 1.3380001
0.12627433 -0.24435744 1.3380001
0.13264243 -0.24435744 1.3380001
