# .PCD v0.7 - Point Cloud Data file format
VERSION 0.7
FIELDS x y z
SIZE 4 4 4
TYPE F F F
COUNT 1 1 1
WIDTH 1669
HEIGHT 1
VIEWPOINT 0 0 0 1 0 0 0
POINTS 1669
DATA ascii
3.3767209 -1.4025778 4.1290002
3.3963726 -1.4025778 4.1290002
3.4160242 -1.4025778 4.1290002
3.4356756 -1.4025778 4.1290002
3.4553275 -1.4025778 4.1290002
3.4749792 -1.4025778 4.1290002
3.4946306 -1.4025778 4.1290002
3.4930041 -1.3940854 4.1040001
3.4911397 -1.3855932 4.079
3.489898 -1.3774408 4.0550003
3.4875624 -1.3689485 4.0300002
3.506743 -1.3689485 4.0300002
3.504925 -1.3607959 4.006
3.5239913 -1.3607959 4.006
3.5430577 -1.3607959 4.006
3.6056945 -1.3774408 4.0550003
3.624994 -1.3774408 4.0550003
3.6658626 -1.3855932 4.079
3.7078629 -1.3940854 4.1040001
3.7501016 -1.4025778 4.1290002
3.7697532 -1.4025778 4.1290002
3.8132663 -1.4114096 4.1550002
3.8330417 -1.4114096 4.1550002
3.875999 -1.419902 4.1800003
0 -0 0
0 -0 0
0 -0 0
0 -0 0
0 -0 0
0 -0 0
0 -0 0
0 -0 0
0 -0 0
0 -0 0
0 -0 0
0 -0 0
0 -0 0
-0 -0 0
-0 -0 0
-0 -0 0
-0 -0 0
-0 -0 0
-0 -0 0
-0 -0 0
-0 -0 0
-0 -0 0
-0 -0 0
-0 -0 0
-0 -0 0
-0 -0 0
-0.97760934 -0.34028894 1.016
-0.97181642 -0.33995402 1.0150001
-0.96793824 -0.34028894 1.016
-0.96405065 -0.34062386 1.0170001
-0.96109664 -0.34129372 1.0190001
-0.95812362 -0.34196356 1.021
-0.95606524 -0.34296837 1.024
-0.95490718 -0.34430808 1.028
-0.95278692 -0.34531286 1.031
-0.95155752 -0.34665263 1.0350001
-0.95029002 -0.3479923 1.039
-0.94898444 -0.34933206 1.0430001
-0.94764072 -0.35067177 1.0470001
-0.94625896 -0.35201147 1.051
-0.94483924 -0.35335121 1.0550001
-0.94338125 -0.35469091 1.059
-0.94099927 -0.35569569 1.062
-0.93947005 -0.35703546 1.0660001
-0.93877923 -0.35871011 1.0710001
-0.93629718 -0.35971487 1.074
-0.93465376 -0.3610546 1.0780001
-0.93297207 -0.3623943 1.082
-0.93125254 -0.36373404 1.0860001
-0.9303475 -0.36540869 1.0910001
-0.92854691 -0.36674839 1.095
-0.92670834 -0.36808813 1.0990001
-0.92483157 -0.36942783 1.103
-0.92291671 -0.37076753 1.107
-0.92179286 -0.37244225 1.1120001
-0.91979718 -0.37378195 1.1160001
-0.91776335 -0.37512162 1.12
-0.91569149 -0.37646139 1.1240001
-0.91439152 -0.37813604 1.1290001
-0.91223872 -0.37947574 1.133
-0.91004789 -0.38081548 1.1370001
-0.90781897 -0.38215518 1.141
-0.90555203 -0.38349491 1.1450001
-0.90403306 -0.38516957 1.1500001
-0.9024666 -0.38684422 1.1550001
-0.90007579 -0.38818392 1.159
-0.89919066 -0.39019352 1.1650001
-0.89824837 -0.39220306 1.171
-0.89724904 -0.39421266 1.177
-0.89619255 -0.39622226 1.1830001
-0.89507896 -0.3982318 1.189
-0.89390826 -0.4002414 1.1950001
-0.8919372 -0.40191606 1.2
-0.89065707 -0.40392566 1.2060001
-0.88931972 -0.4059352 1.212
-0.88792533 -0.4079448 1.2180001
-0.88647389 -0.4099544 1.2240001
-0.88496524 -0.41196394 1.23
-0.88411427 -0.41430849 1.2370001
-0.88177675 -0.41598314 1.2420001
-0.88009673 -0.41799268 1.248
-0.87765914 -0.41966733 1.253
-0.87586981 -0.42167693 1.2590001
-0.87402332 -0.42368653 1.2650001
-0.87143344 -0.42536119 1.2700001
-0.86879611 -0.42703581 1.2750001
-0.86678767 -0.42904538 1.281
-0.86472219 -0.43105498 1.2870001
-0.86259967 -0.43306458 1.2930001
-0.86108232 -0.43540907 1.3000001
-0.85884076 -0.43741867 1.3060001
-0.85719496 -0.43976316 1.3130001
-0.85548246 -0.44210765 1.3200001
-0.85370332 -0.44445217 1.327
-0.85121912 -0.44646177 1.3330001
-0.84867769 -0.44847134 1.3390001
-0.84670818 -0.45081586 1.3460001
-0.84342355 -0.45249051 1.3510001
-0.84009123 -0.45416516 1.3560001
-0.83732611 -0.45617473 1.3620001
-0.83450395 -0.4581843 1.368
-0.83101934 -0.45985895 1.373
-0.82808763 -0.46186852 1.3790001
-0.82509893 -0.46387812 1.3850001
-0.82264394 -0.46622264 1.3920001
-0.82012236 -0.46856713 1.399
-0.81811571 -0.47124657 1.4070001
-0.81545603 -0.47359109 1.414
-0.8127299 -0.47593561 1.4210001
-0.81050414 -0.47861502 1.429
-0.80764002 -0.48095956 1.4360001
-0.80415142 -0.48296911 1.442
-0.80115867 -0.48531365 1.4490001
-0.79809934 -0.48765814 1.4560001
-0.79497331 -0.49000266 1.4630001
-0.79178059 -0.49234715 1.47
-0.78798753 -0.49435675 1.4760001
-0.78519553 -0.49703619 1.4840001
-0.78127861 -0.49904579 1.4900001
-0.77730465 -0.50105536 1.4960001
-0.77327353 -0.50306493 1.5020001
-0.76969534 -0.50540942 1.5090001
-0.76706129 -0.50842381 1.5180001
-0.76233923 -0.51009846 1.5230001
-0.75806534 -0.51210803 1.529
-0 -0 0
-0 -0 0
-0 -0 0
-0 -0 0
-0 -0 0
-0 -0 0
-0 -0 0
-0 -0 0
-0 -0 0
-0 -0 0
-0 -0 0
-0 -0 0
-0 -0 0
-0.35791931 -0.27933165 0.83400005
-0.35394996 -0.27933165 0.83400005
-0.34998059 -0.27933165 0.83400005
-0.3455964 -0.27899674 0.83300006
-0.34122166 -0.27866179 0.83200002
-0.33685645 -0.27832687 0.83100003
-0.33250082 -0.27799195 0.83000004
-0.32815465 -0.277657 0.82900006
-0.3234269 -0.27698714 0.82700002
-0.31910455 -0.27665222 0.82600003
-0.31479174 -0.2763173 0.82500005
-0.31011158 -0.27564743 0.82300001
-0.30582255 -0.27531248 0.82200003
-0.30117574 -0.27464265 0.82000005
-0.29691049 -0.27430773 0.81900007
-0.29265475 -0.27397278 0.81800002
-0.28805554 -0.27330291 0.81600004
-0.28382364 -0.27296799 0.81500006
-0.27925771 -0.27229813 0.81300002
-0.27471086 -0.27162826 0.81100005
-0.27051702 -0.27129334 0.81000006
-0.26600346 -0.27062348 0.80800003
-0.26150894 -0.26995364 0.80600005
-0.25735319 -0.26961869 0.80500007
-0.25320691 -0.26928374 0.80400002
-0.24875998 -0.2686139 0.80200005
-0.24463753 -0.26827899 0.80100006
-0.24052458 -0.26794404 0.80000001
-0.23612525 -0.26727417 0.79800004
-0.23203611 -0.26693925 0.79700005
-0.2276701 -0.26626939 0.79500002
-0.22332314 -0.26559952 0.79300004
-0.2189952 -0.26492965 0.79100001
-0.21495841 -0.26459473 0.79000002
-0.2106638 -0.26392487 0.78800005
-0.20665081 -0.26358995 0.78700006
-0.20264733 -0.263255 0.78600001
-0.19865336 -0.26292008 0.78500003
-0.19466893 -0.26258516 0.78400004
-0.19045046 -0.2619153 0.78200006
-0.18648981 -0.26158035 0.78100002
-0.18253869 -0.26124543 0.78000003
-0.17859709 -0.26091051 0.77900004
-0.174665 -0.26057559 0.77800006
-0.17052269 -0.25990573 0.77600002
-0.16639942 -0.25923586 0.77400005
-0.1625054 -0.25890094 0.77300006
-0.15841544 -0.25823107 0.77100003
-0.15454523 -0.25789613 0.77000004
-0.15068454 -0.25756121 0.76900005
-0.14683335 -0.25722626 0.76800001
-0.14299169 -0.25689134 0.76700002
-0.13915956 -0.25655642 0.76600003
-0.13516003 -0.25588655 0.76400006
-0.13117953 -0.25521669 0.76200002
-0.12738547 -0.25488177 0.76100004
-0.12360092 -0.25454685 0.76000005
-0.11966802 -0.25387698 0.75800002
-0.11590727 -0.25354204 0.75700003
-0.11215604 -0.25320712 0.75600004
-0.10841433 -0.2528722 0.75500005
-0.10468214 -0.25253725 0.75400001
-0.10095946 -0.25220233 0.75300002
-0.097246312 -0.25186738 0.75200003
-0.093418121 -0.25119755 0.75000006
-0.089728765 -0.2508626 0.74900001
-0.086048931 -0.25052768 0.74800003
-0.082268327 -0.24985783 0.74600005
-0.07861229 -0.24952289 0.74500006
-0.074965768 -0.24918795 0.74400002
-0.071328759 -0.24885303 0.74300003
-0.06770128 -0.24851809 0.74200004
-0.064083315 -0.24818318 0.74100006
-0.060474865 -0.24784823 0.74000001
-0.05687594 -0.24751329 0.73900002
-0.053286526 -0.24717838 0.73800004
-0.049639195 -0.24650852 0.73600006
-0.046073578 -0.24617358 0.73500001
-0.042517487 -0.24583866 0.73400003
-0.038970914 -0.24550372 0.73300004
-0.035433862 -0.24516881 0.73200005
-0.031906322 -0.24483386 0.73100001
-0.028388303 -0.24449892 0.73000002
-0.024913933 -0.24449892 0.73000002
-0.021410193 -0.244164 0.72900003
-0.017915973 -0.24382907 0.72800004
-0.014431272 -0.24349415 0.72700006
-0.010956087 -0.2431592 0.72600001
-0.007490423 -0.24282429 0.72500002
-0.0040342775 -0.24248935 0.72400004
-0.00058765081 -0.24215443 0.72300005
0.0028494573 -0.2418195 0.72200006
0.0062857526 -0.2418195 0.72200006
0.0096816514 -0.2408147 0.71900004
0.013067218 -0.24014483 0.71700001
0.016433749 -0.23947498 0.71500003
0.019808983 -0.23914006 0.71400005
0.023174701 -0.23880513 0.71300006
0.026493635 -0.23813526 0.71100003
0.029835556 -0.23780033 0.71000004
0.033167958 -0.23746541 0.70900005
0.036490835 -0.23713046 0.708
0.039860498 -0.23713046 0.708
0.043169104 -0.23679554 0.70700002
0.046534009 -0.23679554 0.70700002
0.049828336 -0.23646061 0.70600003
0.05318848 -0.23646061 0.70600003
0.056468528 -0.23612569 0.70500004
0.059739057 -0.23579076 0.70400006
0.063000068 -0.23545581 0.70300001
0.066251554 -0.23512089 0.70200002
0.069592662 -0.23512089 0.70200002
0.073037662 -0.23545581 0.70300001
0.076600835 -0.23612569 0.70500004
0.079956226 -0.23612569 0.70500004
0.08331161 -0.23612569 0.70500004
0.086666994 -0.23612569 0.70500004
0.090022385 -0.23612569 0.70500004
0.093377769 -0.23612569 0.70500004
0.096595943 -0.23579076 0.70400006
0.099946566 -0.23579076 0.70400006
0.10315046 -0.23545581 0.70300001
0.10634483 -0.23512089 0.70200002
0.1095297 -0.23478596 0.70100003
0.11286605 -0.23478596 0.70100003
0.11603662 -0.23445104 0.70000005
0.1191977 -0.23411611 0.69900006
0.12252452 -0.23411611 0.69900006
0.1256713 -0.23378117 0.69800001
0.12862377 -0.23311132 0.69600004
0.13155718 -0.23244144 0.69400001
0.13408293 -0.23110174 0.69000006
0.13657059 -0.22976202 0.68600005
0.13922402 -0.22875722 0.68300003
0.14164029 -0.2274175 0.67900002
0.14401849 -0.22607778 0.67500001
0.14657673 -0.22507299 0.67200005
0.1493293 -0.22440313 0.67000002
0.15206282 -0.22373328 0.66800004
0.15500972 -0.22339836 0.66700006
0.15794708 -0.22306341 0.66600001
0.16087493 -0.22272848 0.66500002
0.16379327 -0.22239356 0.66400003
0.16670208 -0.22205862 0.66300005
0.16985758 -0.22205862 0.66300005
0.17301306 -0.22205862 0.66300005
0.17590283 -0.22172371 0.66200006
0 -0 0
0 -0 0
0 -0 0
0 -0 0
0 -0 0
0 -0 0
0 -0 0
0 -0 0
0 -0 0
0 -0 0
0 -0 0
0 -0 0
1.4318811 -1.4639792 4.3710003
1.4526844 -1.4639792 4.3710003
1.4734879 -1.4639792 4.3710003
1.4942913 -1.4639792 4.3710003
1.5150946 -1.4639792 4.3710003
1.5358981 -1.4639792 4.3710003
1.5463731 -1.4542662 4.342
1.5670385 -1.4542662 4.342
1.5877039 -1.4542662 4.342
1.6083692 -1.4542662 4.342
1.6290345 -1.4542662 4.342
1.6497 -1.4542662 4.342
1.6703653 -1.4542662 4.342
1.6910306 -1.4542662 4.342
1.7116961 -1.4542662 4.342
1.7323614 -1.4542662 4.342
1.7530267 -1.4542662 4.342
1.7855387 -1.4639792 4.3710003
1.806342 -1.4639792 4.3710003
1.8271456 -1.4639792 4.3710003
1.8479489 -1.4639792 4.3710003
1.8687522 -1.4639792 4.3710003
1.8895557 -1.4639792 4.3710003
1.910359 -1.4639792 4.3710003
1.9311624 -1.4639792 4.3710003
1.9390152 -1.4542662 4.342
1.9470432 -1.4448882 4.3140001
1.9675753 -1.4448882 4.3140001
1.9881074 -1.4448882 4.3140001
2.0086396 -1.4448882 4.3140001
2.0291717 -1.4448882 4.3140001
2.0497038 -1.4448882 4.3140001
2.0702357 -1.4448882 4.3140001
2.1043379 -1.4542662 4.342
2.1250033 -1.4542662 4.342
2.1456687 -1.4542662 4.342
2.1663342 -1.4542662 4.342
2.1728964 -1.4448882 4.3140001
2.1934285 -1.4448882 4.3140001
2.2139604 -1.4448882 4.3140001
2.2344928 -1.4448882 4.3140001
2.2550249 -1.4448882 4.3140001
2.2755568 -1.4448882 4.3140001
2.2960889 -1.4448882 4.3140001
2.3166211 -1.4448882 4.3140001
2.3371532 -1.4448882 4.3140001
2.3576853 -1.4448882 4.3140001
2.3782175 -1.4448882 4.3140001
2.3987494 -1.4448882 4.3140001
2.40414 -1.4358451 4.2870002
2.4245439 -1.4358451 4.2870002
2.4449472 -1.4358451 4.2870002
2.4653509 -1.4358451 4.2870002
2.4857545 -1.4358451 4.2870002
2.5219419 -1.4448882 4.3140001
2.5424743 -1.4448882 4.3140001
2.5630064 -1.4448882 4.3140001
2.5835383 -1.4448882 4.3140001
2.6040704 -1.4448882 4.3140001
2.6246026 -1.4448882 4.3140001
2.6451347 -1.4448882 4.3140001
2.6656668 -1.4448882 4.3140001
2.6693869 -1.4358451 4.2870002
2.6728497 -1.426802 4.2600002
2.6760559 -1.4177589 4.2330003
2.679642 -1.4090507 4.2070003
2.6996646 -1.4090507 4.2070003
2.7196875 -1.4090507 4.2070003
2.7397103 -1.4090507 4.2070003
2.759733 -1.4090507 4.2070003
2.7969353 -1.4177589 4.2330003
2.8350506 -1.426802 4.2600002
2.8553255 -1.426802 4.2600002
2.8756008 -1.426802 4.2600002
2.8958759 -1.426802 4.2600002
2.9161508 -1.426802 4.2600002
2.9364259 -1.426802 4.2600002
2.9567013 -1.426802 4.2600002
2.9581079 -1.4177589 4.2330003
2.9782548 -1.4177589 4.2330003
2.9984014 -1.4177589 4.2330003
3.0378015 -1.426802 4.2600002
3.0580766 -1.426802 4.2600002
3.0588412 -1.4177589 4.2330003
3.0789876 -1.4177589 4.2330003
3.0991342 -1.4177589 4.2330003
3.1192808 -1.4177589 4.2330003
3.1394277 -1.4177589 4.2330003
3.159574 -1.4177589 4.2330003
3.1601901 -1.4090507 4.2070003
3.180213 -1.4090507 4.2070003
3.179697 -1.4000076 4.1800003
3.180455 -1.3916343 4.1550002
3.2002306 -1.3916343 4.1550002
3.2200058 -1.3916343 4.1550002
3.2397811 -1.3916343 4.1550002
3.2595565 -1.3916343 4.1550002
3.2793317 -1.3916343 4.1550002
3.2991071 -1.3916343 4.1550002
3.3188827 -1.3916343 4.1550002
3.3386579 -1.3916343 4.1550002
3.3584332 -1.3916343 4.1550002
3.3570695 -1.3829262 4.1290002
3.3767209 -1.3829262 4.1290002
3.3963726 -1.3829262 4.1290002
3.4160242 -1.3829262 4.1290002
3.45731 -1.3916343 4.1550002
3.4770854 -1.3916343 4.1550002
3.4749792 -1.3829262 4.1290002
3.4946306 -1.3829262 4.1290002
3.4930041 -1.3745528 4.1040001
3.4911397 -1.3661796 4.079
3.489898 -1.3581414 4.0550003
3.4875624 -1.349768 4.0300002
3.506743 -1.349768 4.0300002
3.504925 -1.3417298 4.006
3.5239913 -1.3417298 4.006
3.5642843 -1.349768 4.0300002
3.6056945 -1.3581414 4.0550003
3.624994 -1.3581414 4.0550003
3.6658626 -1.3661796 4.079
3.685276 -1.3661796 4.079
3.7273955 -1.3745528 4.1040001
3.7469282 -1.3745528 4.1040001
3.7894046 -1.3829262 4.1290002
3.8090563 -1.3829262 4.1290002
3.8528173 -1.3916343 4.1550002
0 -0 0
0 -0 0
0 -0 0
0 -0 0
0 -0 0
0 -0 0
0 -0 0
0 -0 0
0 -0 0
0 -0 0
0 -0 0
0 -0 0
0 -0 0
-0 -0 0
-0 -0 0
-0 -0 0
-0 -0 0
-0 -0 0
-0 -0 0
-0 -0 0
-0 -0 0
-0 -0 0
-0 -0 0
-0 -0 0
-0 -0 0
-0 -0 0
-0.97857159 -0.33578357 1.0170001
-0.97373128 -0.33578357 1.0170001
-0.96984357 -0.33611369 1.018
-0.9659465 -0.3364439 1.0190001
-0.96203989 -0.33677408 1.0200001
-0.9590621 -0.33743441 1.0220001
-0.95699894 -0.33842492 1.0250001
-0.95490718 -0.3394154 1.028
-0.95371109 -0.34073612 1.0320001
-0.95155752 -0.34172663 1.0350001
-0.95029002 -0.34304729 1.039
-0.94898444 -0.34436801 1.0430001
-0.94764072 -0.34568867 1.0470001
-0.94625896 -0.34700933 1.051
-0.94394362 -0.34799984 1.054
-0.94249052 -0.34932056 1.0580001
-0.94188541 -0.3509714 1.0630001
-0.94035131 -0.35229206 1.067
-0.93877923 -0.35361278 1.0710001
-0.93716902 -0.35493344 1.075
-0.93552071 -0.3562541 1.079
-0.93383437 -0.35757482 1.0830001
-0.93210995 -0.35889548 1.087
-0.93120021 -0.36054632 1.092
-0.9293949 -0.36186704 1.0960001
-0.92755151 -0.3631877 1.1
-0.92567009 -0.36450842 1.1040001
-0.92375046 -0.36582908 1.108
-0.92179286 -0.36714977 1.1120001
-0.91979718 -0.36847043 1.1160001
-0.91776335 -0.36979112 1.12
-0.91569149 -0.37111181 1.1240001
-0.91358161 -0.37243247 1.128
-0.91143364 -0.37375319 1.1320001
-0.91004789 -0.37540403 1.1370001
-0.90781897 -0.37672469 1.141
-0.90555203 -0.37804541 1.1450001
-0.90403306 -0.37969625 1.1500001
-0.9024666 -0.38134712 1.1550001
-0.90007579 -0.38266778 1.159
-0.89919066 -0.3846488 1.1650001
-0.89824837 -0.38662982 1.171
-0.89724904 -0.38861084 1.177
-0.89619255 -0.39059189 1.1830001
-0.89507896 -0.39257288 1.189
-0.89390826 -0.39455393 1.1950001
-0.89268047 -0.39653495 1.2010001
-0.89139557 -0.39851597 1.207
-0.89005351 -0.40049699 1.2130001
-0.88865441 -0.40247804 1.2190001
-0.88719809 -0.40445903 1.225
-0.88568473 -0.40644008 1.2310001
-0.88411427 -0.4084211 1.2370001
-0.88177675 -0.41007197 1.2420001
-0.88009673 -0.41205296 1.248
-0.87765914 -0.4137038 1.253
-0.87586981 -0.41568485 1.2590001
-0.87402332 -0.41766587 1.2650001
-0.87143344 -0.41931674 1.2700001
-0.86879611 -0.42096758 1.2750001
-0.86678767 -0.4229486 1.281
-0.86472219 -0.42492962 1.2870001
-0.86259967 -0.42691067 1.2930001
-0.86108232 -0.42922184 1.3000001
-0.85949832 -0.43153304 1.307
-0.85719496 -0.43351406 1.3130001
-0.85548246 -0.43582526 1.3200001
-0.85370332 -0.43813643 1.327
-0.85185772 -0.44044766 1.3340001
-0.84867769 -0.4420985 1.3390001
-0.84607911 -0.44407952 1.345
-0.84342355 -0.44606054 1.3510001
-0.84009123 -0.44771141 1.3560001
-0.83671135 -0.44936225 1.3610001
-0.83389395 -0.4513433 1.3670001
-0.83101934 -0.45332429 1.373
-0.82808763 -0.45530534 1.3790001
-0.82509893 -0.45728636 1.3850001
-0.82264394 -0.45959756 1.3920001
-0.82012236 -0.46190873 1.399
-0.81753421 -0.46421993 1.406
-0.81545603 -0.46686128 1.414
-0.8127299 -0.46917251 1.4210001
-0.809937 -0.47148368 1.4280001
-0.8065151 -0.4734647 1.434
-0.80359375 -0.47577593 1.4410001
-0.80060571 -0.4780871 1.4480001
-0.79755116 -0.4803983 1.455
-0.79388654 -0.48237932 1.4610001
-0.791242 -0.4850207 1.4690001
-0.78745365 -0.48700169 1.475
-0.78413731 -0.48931292 1.4820001
-0.77970558 -0.49096376 1.4870001
-0.7762655 -0.49327496 1.4940001
-0.77121419 -0.49459562 1.498
-0.76765507 -0.49690685 1.5050001
-0.76554531 -0.50020856 1.5150001
-0.75833482 -0.50020856 1.5150001
-0 -0 0
-0 -0 0
-0 -0 0
-0 -0 0
-0 -0 0
-0 -0 0
-0 -0 0
-0 -0 0
-0 -0 0
-0 -0 0
-0 -0 0
-0 -0 0
-0 -0 0
-0.36188865 -0.27536231 0.83400005
-0.35791931 -0.27536231 0.83400005
-0.35394996 -0.27536231 0.83400005
-0.34956098 -0.27503216 0.83300006
-0.34518149 -0.27470198 0.83200002
-0.34081155 -0.2743718 0.83100003
-0.33645111 -0.27404165 0.83000004
-0.33210021 -0.27371147 0.82900006
-0.32775882 -0.27338129 0.82800007
-0.32303584 -0.27272096 0.82600003
-0.31871825 -0.27239078 0.82500005
-0.31441018 -0.27206063 0.82400006
-0.30973479 -0.27140027 0.82200003
-0.3054505 -0.27107009 0.82100004
-0.30080846 -0.27040976 0.81900007
-0.29654795 -0.27007958 0.81800002
-0.29229701 -0.2697494 0.81700003
-0.28770253 -0.26908907 0.81500006
-0.28347537 -0.26875889 0.81400001
-0.27891424 -0.26809856 0.81200004
-0.27437213 -0.26743823 0.81000006
-0.27018303 -0.26710805 0.80900002
-0.26567426 -0.26644772 0.80700004
-0.26118448 -0.26578739 0.80500007
-0.25703347 -0.26545718 0.80400002
-0.25289199 -0.26512703 0.80300003
-0.24844982 -0.2644667 0.80100006
-0.2443321 -0.26413652 0.80000001
-0.24022393 -0.26380634 0.79900002
-0.23612525 -0.26347616 0.79800004
-0.23203611 -0.26314601 0.79700005
-0.2276701 -0.26248565 0.79500002
-0.22332314 -0.26182532 0.79300004
-0.2189952 -0.26116496 0.79100001
-0.21468632 -0.26050463 0.78900003
-0.2106638 -0.26017448 0.78800005
-0.20665081 -0.2598443 0.78700006
-0.20264733 -0.25951412 0.78600001
-0.19865336 -0.25918394 0.78500003
-0.19466893 -0.25885379 0.78400004
-0.19045046 -0.25819346 0.78200006
-0.18648981 -0.25786328 0.78100002
-0.18253869 -0.2575331 0.78000003
-0.17859709 -0.25720292 0.77900004
-0.174665 -0.25687277 0.77800006
-0.17052269 -0.25621241 0.77600002
-0.16639942 -0.25555208 0.77400005
-0.1625054 -0.25522193 0.77300006
-0.15841544 -0.25456157 0.77100003
-0.15454523 -0.25423139 0.77000004
-0.15068454 -0.25390124 0.76900005
-0.14683335 -0.25357103 0.76800001
-0.14299169 -0.25324088 0.76700002
-0.13915956 -0.2529107 0.76600003
-0.13516003 -0.25225037 0.76400006
-0.13117953 -0.25159004 0.76200002
-0.12738547 -0.25125986 0.76100004
-0.12360092 -0.25092968 0.76000005
-0.1198259 -0.25059953 0.75900006
-0.11606038 -0.25026935 0.75800002
-0.1123044 -0.24993917 0.75700003
-0.10855792 -0.24960901 0.75600004
-0.10482098 -0.24927884 0.75500005
-0.10109354 -0.24894866 0.75400001
-0.097246312 -0.24828833 0.75200003
-0.09354268 -0.24795815 0.75100005
-0.089848563 -0.24762799 0.75000006
-0.086048931 -0.24696764 0.74800003
-0.082378611 -0.24663748 0.74700004
-0.078717813 -0.24630731 0.74600005
-0.075066529 -0.24597715 0.74500006
-0.07142476 -0.24564695 0.74400002
-0.06779252 -0.24531679 0.74300003
-0.064169794 -0.24498662 0.74200004
-0.060556591 -0.24465646 0.74100006
-0.056952901 -0.24432626 0.74000001
-0.05335873 -0.2439961 0.73900002
-0.049774084 -0.24366593 0.73800004
-0.046198949 -0.24333577 0.73700005
-0.04263334 -0.2430056 0.73600006
-0.039077245 -0.24267542 0.73500001
-0.035530675 -0.24234526 0.73400003
-0.031949971 -0.24168491 0.73200005
-0.028427191 -0.24135473 0.73100001
-0.024948061 -0.24135473 0.73100001
-0.021439562 -0.24102457 0.73000002
-0.017940583 -0.2406944 0.72900003
-0.014451121 -0.24036424 0.72800004
-0.010986269 -0.24036424 0.72800004
-0.0075110868 -0.24003407 0.72700006
-0.0040454217 -0.23970388 0.72600001
-0.00058927643 -0.23937371 0.72500002
0.0028573503 -0.23904355 0.72400004
0.0063031642 -0.23904355 0.72400004
0.0097085815 -0.23805302 0.72100002
0.013103669 -0.23739269 0.71900004
0.016456733 -0.23640218 0.71600002
0.019808983 -0.23574184 0.71400005
0.023174701 -0.23541167 0.71300006
0 -0 0
0 -0 0
0 -0 0
0 -0 0
0 -0 0
0 -0 0
0 -0 0
0 -0 0
0 -0 0
0 -0 0
0 -0 0
0 -0 0
0 -0 0
0.069790937 -0.23244014 0.70400006
0.07314156 -0.23244014 0.70400006
0.077035457 -0.234091 0.70900005
0.08052329 -0.23442116 0.71000004
0.083902471 -0.23442116 0.71000004
0.087281652 -0.23442116 0.71000004
0.09066084 -0.23442116 0.71000004
0.094040021 -0.23442116 0.71000004
0.097281992 -0.234091 0.70900005
0.10065641 -0.234091 0.70900005
0.10388411 -0.2337608 0.708
0.10725376 -0.2337608 0.708
0.11046718 -0.23343064 0.70700002
0.11367109 -0.23310047 0.70600003
0.11703122 -0.23310047 0.70600003
0.12022085 -0.23277031 0.70500004
0.12340095 -0.23244014 0.70400006
0.12657152 -0.23210996 0.70300001
0.12954779 -0.23144962 0.70100003
0.13231544 -0.23045911 0.69800001
0.13486022 -0.22913842 0.69400001
0.13696875 -0.2271574 0.68800002
0.1396317 -0.2261669 0.68500006
0.14164029 -0.22418587 0.67900002
0.14401849 -0.22286518 0.67500001
0.14657673 -0.22187468 0.67200005
0.1493293 -0.22121432 0.67000002
0.15206282 -0.22055399 0.66800004
0.15500972 -0.22022383 0.66700006
0.15794708 -0.21989365 0.66600001
0.16087493 -0.21956348 0.66500002
0.16379327 -0.2192333 0.66400003
0.16670208 -0.21890314 0.66300005
0.16985758 -0.21890314 0.66300005
0.17301306 -0.21890314 0.66300005
0.17590283 -0.21857297 0.66200006
0 -0 0
0 -0 0
0 -0 0
0 -0 0
0 -0 0
0 -0 0
0 -0 0
0 -0 0
0 -0 0
0 -0 0
0 -0 0
0 -0 0
1.4318811 -1.4431759 4.3710003
1.4526844 -1.4431759 4.3710003
1.4734879 -1.4431759 4.3710003
1.4942913 -1.4431759 4.3710003
1.5150946 -1.4431759 4.3710003
1.5358981 -1.4431759 4.3710003
1.5463731 -1.4336009 4.342
1.5670385 -1.4336009 4.342
1.5877039 -1.4336009 4.342
1.6083692 -1.4336009 4.342
1.6290345 -1.4336009 4.342
1.6497 -1.4336009 4.342
1.6703653 -1.4336009 4.342
1.6910306 -1.4336009 4.342
1.7116961 -1.4336009 4.342
1.7323614 -1.4336009 4.342
1.7647352 -1.4431759 4.3710003
1.7855387 -1.4431759 4.3710003
1.806342 -1.4431759 4.3710003
1.8388499 -1.4524207 4.3990002
1.8597865 -1.4524207 4.3990002
1.8807231 -1.4524207 4.3990002
1.9016598 -1.4524207 4.3990002
1.910359 -1.4431759 4.3710003
1.9311624 -1.4431759 4.3710003
1.9390152 -1.4336009 4.342
1.9470432 -1.4243561 4.3140001
1.9675753 -1.4243561 4.3140001
1.9881074 -1.4243561 4.3140001
2.0086396 -1.4243561 4.3140001
2.0291717 -1.4243561 4.3140001
2.0497038 -1.4243561 4.3140001
2.0702357 -1.4243561 4.3140001
2.1043379 -1.4336009 4.342
2.1250033 -1.4336009 4.342
2.1456687 -1.4336009 4.342
2.1663342 -1.4336009 4.342
2.1728964 -1.4243561 4.3140001
2.1934285 -1.4243561 4.3140001
2.2139604 -1.4243561 4.3140001
2.2344928 -1.4243561 4.3140001
2.2550249 -1.4243561 4.3140001
2.2755568 -1.4243561 4.3140001
2.2960889 -1.4243561 4.3140001
2.3166211 -1.4243561 4.3140001
2.3371532 -1.4243561 4.3140001
2.3576853 -1.4243561 4.3140001
2.3782175 -1.4243561 4.3140001
2.3987494 -1.4243561 4.3140001
2.4192815 -1.4243561 4.3140001
2.4398139 -1.4243561 4.3140001
2.4603457 -1.4243561 4.3140001
2.4808779 -1.4243561 4.3140001
2.50141 -1.4243561 4.3140001
2.5219419 -1.4243561 4.3140001
2.5424743 -1.4243561 4.3140001
2.5630064 -1.4243561 4.3140001
2.5835383 -1.4243561 4.3140001
2.6040704 -1.4243561 4.3140001
2.6246026 -1.4243561 4.3140001
2.6451347 -1.4243561 4.3140001
2.6489832 -1.4154415 4.2870002
2.6525748 -1.4065269 4.2600002
2.6559093 -1.3976123 4.2330003
2.6596189 -1.389028 4.2070003
2.679642 -1.389028 4.2070003
2.6823385 -1.3801134 4.1800003
2.7022328 -1.3801134 4.1800003
2.7397103 -1.389028 4.2070003
2.759733 -1.389028 4.2070003
2.7797561 -1.389028 4.2070003
2.8170822 -1.3976123 4.2330003
2.8553255 -1.4065269 4.2600002
2.8756008 -1.4065269 4.2600002
2.8958759 -1.4065269 4.2600002
2.9161508 -1.4065269 4.2600002
2.9364259 -1.4065269 4.2600002
2.9379616 -1.3976123 4.2330003
2.9581079 -1.3976123 4.2330003
2.9782548 -1.3976123 4.2330003
3.0175264 -1.4065269 4.2600002
3.0378015 -1.4065269 4.2600002
3.0580766 -1.4065269 4.2600002
3.0783517 -1.4065269 4.2600002
3.0986266 -1.4065269 4.2600002
3.118902 -1.4065269 4.2600002
3.1391771 -1.4065269 4.2600002
3.1594522 -1.4065269 4.2600002
3.1797271 -1.4065269 4.2600002
3.2000024 -1.4065269 4.2600002
3.1998672 -1.3976123 4.2330003
3.2002356 -1.389028 4.2070003
3.1995914 -1.3801134 4.1800003
3.2194858 -1.3801134 4.1800003
3.2200058 -1.3718591 4.1550002
3.2397811 -1.3718591 4.1550002
3.2595565 -1.3718591 4.1550002
3.2793317 -1.3718591 4.1550002
3.2991071 -1.3718591 4.1550002
3.3188827 -1.3718591 4.1550002
3.3386579 -1.3718591 4.1550002
3.3374178 -1.3632746 4.1290002
3.3570695 -1.3632746 4.1290002
3.3767209 -1.3632746 4.1290002
3.3963726 -1.3632746 4.1290002
3.4160242 -1.3632746 4.1290002
3.4356756 -1.3632746 4.1290002
3.4553275 -1.3632746 4.1290002
3.4749792 -1.3632746 4.1290002
3.4734714 -1.3550203 4.1040001
3.4717259 -1.346766 4.079
3.4911397 -1.346766 4.079
3.489898 -1.338842 4.0550003
3.4875624 -1.3305877 4.0300002
3.4858589 -1.3226635 4.006
3.504925 -1.3226635 4.006
3.5239913 -1.3226635 4.006
3.5642843 -1.3305877 4.0300002
3.6056945 -1.338842 4.0550003
3.624994 -1.338842 4.0550003
3.6442935 -1.338842 4.0550003
3.685276 -1.346766 4.079
3.7046897 -1.346766 4.079
3.7469282 -1.3550203 4.1040001
3.7664607 -1.3550203 4.1040001
3.8090563 -1.3632746 4.1290002
3.8528173 -1.3718591 4.1550002
0 -0 0
0 -0 0
0 -0 0
0 -0 0
0 -0 0
0 -0 0
0 -0 0
0 -0 0
0 -0 0
0 -0 0
0 -0 0
0 -0 0
0 -0 0
-0 -0 0
-0 -0 0
-0 -0 0
-0 -0 0
-0 -0 0
-0 -0 0
-0 -0 0
-0 -0 0
-0 -0 0
-0 -0 0
-0 -0 0
-0 -0 0
-0 -0 0
-0.97857159 -0.33094323 1.0170001
-0.97373128 -0.33094323 1.0170001
-0.96984357 -0.33126861 1.018
-0.9659465 -0.33159402 1.0190001
-0.96298301 -0.33224484 1.021
-0.96000046 -0.33289567 1.023
-0.95699894 -0.33354652 1.0250001
-0.95490718 -0.33452272 1.028
-0.95371109 -0.33582437 1.0320001
-0.95247686 -0.33712602 1.036
-0.95029002 -0.33810225 1.039
-0.94898444 -0.33940393 1.0430001
-0.94764072 -0.34070554 1.0470001
-0.94625896 -0.34200716 1.051
-0.94394362 -0.34298342 1.054
-0.94249052 -0.34428507 1.0580001
-0.94188541 -0.34591213 1.0630001
-0.94035131 -0.34721377 1.067
-0.93877923 -0.34851542 1.0710001
-0.93716902 -0.34981707 1.075
-0.93552071 -0.35111868 1.079
-0.93469667 -0.35274577 1.0840001
-0.93296754 -0.35404742 1.0880001
-0.93120021 -0.35534903 1.092
-0.9293949 -0.35665071 1.0960001
-0.92755151 -0.35795233 1.1
-0.92567009 -0.359254 1.1040001
-0.92291671 -0.36023021 1.107
-0.92179286 -0.3618573 1.1120001
-0.91897297 -0.3628335 1.115
-0.91694397 -0.36413515 1.1190001
-0.91569149 -0.3657622 1.1240001
-0.91358161 -0.36706385 1.128
-0.91143364 -0.3683655 1.1320001
-0.90924746 -0.36966714 1.136
-0.90781897 -0.3712942 1.141
-0.90555203 -0.37259585 1.1450001
-0.90403306 -0.3742229 1.1500001
-0.9024666 -0.37584996 1.1550001
-0.90085238 -0.37747702 1.1600001
-0.89919066 -0.37910408 1.1650001
-0.89824837 -0.38105652 1.171
-0.89724904 -0.38300899 1.177
-0.89619255 -0.38496149 1.1830001
-0.89507896 -0.38691393 1.189
-0.89390826 -0.38886639 1.1950001
-0.89268047 -0.39081889 1.2010001
-0.89139557 -0.39277133 1.207
-0.89005351 -0.3947238 1.2130001
-0.88865441 -0.39667627 1.2190001
-0.88719809 -0.39862874 1.225
-0.88568473 -0.40058121 1.2310001
-0.88339949 -0.40220827 1.2360001
-0.88177675 -0.40416074 1.2420001
-0.88009673 -0.40611318 1.248
-0.87765914 -0.40774024 1.253
-0.87586981 -0.40969273 1.2590001
-0.87402332 -0.4116452 1.2650001
-0.87143344 -0.41327226 1.2700001
-0.86879611 -0.41489932 1.2750001
-0.86678767 -0.41685176 1.281
-0.86472219 -0.41880423 1.2870001
-0.86259967 -0.42075673 1.2930001
-0.86108232 -0.42303458 1.3000001
-0.85949832 -0.42531246 1.307
-0.85784775 -0.42759031 1.314
-0.8561306 -0.42986822 1.3210001
-0.85370332 -0.43182066 1.327
-0.85185772 -0.43409857 1.3340001
-0.84931147 -0.43605101 1.34
-0.84670818 -0.43800351 1.3460001
-0.84342355 -0.43963057 1.3510001
-0.84009123 -0.4412576 1.3560001
-0.83671135 -0.44288465 1.3610001
-0.83389395 -0.44483715 1.3670001
-0.83101934 -0.44678959 1.373
-0.82808763 -0.44874206 1.3790001
-0.82509893 -0.45069456 1.3850001
-0.82264394 -0.45297241 1.3920001
-0.82012236 -0.45525029 1.399
-0.81753421 -0.45752814 1.406
-0.81545603 -0.46013144 1.414
-0.81215787 -0.46208394 1.4200001
-0.80936974 -0.46436179 1.427
-0.8065151 -0.46663967 1.434
-0.80303609 -0.46859214 1.4400001
-0.80005282 -0.47087002 1.447
-0.79700309 -0.47314793 1.4540001
-0.79334313 -0.47510037 1.46
-0.79016477 -0.47737828 1.4670001
-0.78638595 -0.47933072 1.473
-0.78254998 -0.48128319 1.4790001
-0.77865684 -0.48323563 1.485
-0.77418715 -0.48486274 1.4900001
-0.76915491 -0.48616436 1.4940001
-0.76459467 -0.48779142 1.4990001
-0.75847095 -0.48844221 1.501
-0 -0 0
-0 -0 0
-0 -0 0
-0 -0 0
-0 -0 0
-0 -0 0
-0 -0 0
-0 -0 0
-0 -0 0
-0 -0 0
-0 -0 0
-0 -0 0
-0 -0 0
-0.36673537 -0.27204376 0.83600003
-0.36232257 -0.27171835 0.83500004
-0.35834846 -0.27171835 0.83500004
-0.35394996 -0.27139297 0.83400005
-0.34956098 -0.27106756 0.83300006
-0.34518149 -0.27074212 0.83200002
-0.34081155 -0.27041671 0.83100003
-0.33604574 -0.26976591 0.82900006
-0.33169961 -0.2694405 0.82800007
-0.32736295 -0.26911506 0.82700002
-0.32264474 -0.26846427 0.82500005
-0.31833193 -0.26813886 0.82400006
-0.31402859 -0.26781341 0.82300001
-0.30935797 -0.26716262 0.82100004
-0.30507848 -0.26683721 0.82000005
-0.30044115 -0.26618636 0.81800002
-0.29618543 -0.26586097 0.81700003
-0.29193923 -0.26553556 0.81600004
-0.28734952 -0.26488471 0.81400001
-0.2831271 -0.2645593 0.81300002
-0.27857074 -0.26390851 0.81100005
-0.27403337 -0.26325765 0.80900002
-0.26984906 -0.26293227 0.80800003
-0.26534504 -0.26228145 0.80600005
-0.26086003 -0.26163062 0.80400002
-0.25671378 -0.26130521 0.80300003
-0.25257704 -0.2609798 0.80200005
-0.24844982 -0.26065439 0.80100006
-0.24402669 -0.26000357 0.79900002
-0.23992328 -0.25967816 0.79800004
-0.23582935 -0.25935274 0.79700005
-0.23174499 -0.25902733 0.79600006
-0.2276701 -0.25870192 0.79500002
-0.22332314 -0.2580511 0.79300004
-0.2189952 -0.25740027 0.79100001
-0.21468632 -0.25674945 0.78900003
-0.2106638 -0.25642404 0.78800005
-0.20665081 -0.25609863 0.78700006
-0.20264733 -0.25577322 0.78600001
-0.19865336 -0.2554478 0.78500003
-0.19466893 -0.25512239 0.78400004
-0.19045046 -0.25447157 0.78200006
-0.18648981 -0.25414616 0.78100002
-0.18253869 -0.25382075 0.78000003
-0.17859709 -0.25349534 0.77900004
-0.174665 -0.25316992 0.77800006
-0.17052269 -0.2525191 0.77600002
-0.1666144 -0.25219369 0.77500004
-0.16271563 -0.25186828 0.77400005
-0.15862089 -0.25121745 0.77200001
-0.15474594 -0.25089204 0.77100003
-0.15088047 -0.25056663 0.77000004
-0.14702454 -0.25024122 0.76900005
-0.14317812 -0.24991581 0.76800001
-0.13915956 -0.24926499 0.76600003
-0.13533694 -0.24893959 0.76500005
-0.13135168 -0.24828875 0.76300001
-0.12755285 -0.24796334 0.76200002
-0.12376355 -0.24763794 0.76100004
-0.11998378 -0.24731253 0.76000005
-0.11621351 -0.24698712 0.75900006
-0.11245275 -0.24666169 0.75800002
-0.10870152 -0.24633628 0.75700003
-0.10495982 -0.24601088 0.75600004
-0.10122763 -0.24568547 0.75500005
-0.097375624 -0.24503464 0.75300002
-0.09354268 -0.24438383 0.75100005
-0.089848563 -0.24405842 0.75000006
-0.086163968 -0.24373299 0.74900001
-0.082488887 -0.24340759 0.74800003
-0.078823328 -0.24308218 0.74700004
-0.075167291 -0.24275677 0.74600005
-0.071520768 -0.24243137 0.74500006
-0.06788376 -0.24210595 0.74400002
-0.064256273 -0.24178053 0.74300003
-0.060638312 -0.24145512 0.74200004
-0.05710683 -0.24145512 0.74200004
-0.053503141 -0.24112971 0.74100006
-0.049908973 -0.24080428 0.74000001
-0.04632432 -0.24047889 0.73900002
-0.042749193 -0.24015348 0.73800004
-0.039130412 -0.23950267 0.73600006
-0.035579078 -0.23917724 0.73500001
-0.032037266 -0.23885183 0.73400003
-0.028504968 -0.23852642 0.73300004
-0.024982192 -0.23820102 0.73200005
-0.021468932 -0.2378756 0.73100001
-0.017965192 -0.23755018 0.73000002
-0.014490821 -0.23755018 0.73000002
-0.011016452 -0.23755018 0.73000002
-0.0075317496 -0.23722477 0.72900003
-0.0040565664 -0.23689938 0.72800004
-0.00059171481 -0.23689938 0.72800004
0.0028652435 -0.23624854 0.72600001
0.0063205762 -0.23624854 0.72600001
0.0097355135 -0.23527232 0.72300005
0.013121893 -0.23429607 0.72000003
0.016479716 -0.23331983 0.71700001
0 -0 0
0 -0 0
0 -0 0
0 -0 0
0 -0 0
0 -0 0
0 -0 0
0 -0 0
0 -0 0
0 -0 0
0 -0 0
0 -0 0
0 -0 0
0 -0 0
0 -0 0
0 -0 0
0.073661029 -0.23071656 0.70900005
0.077470072 -0.2320182 0.71300006
0.081090353 -0.23266903 0.71500003
0.084493332 -0.23266903 0.71500003
0.08789631 -0.23266903 0.71500003
0.091299295 -0.23266903 0.71500003
0.094702274 -0.23266903 0.71500003
0.098105244 -0.23266903 0.71500003
0.10136627 -0.23234361 0.71400005
0.10476448 -0.23234361 0.71400005
0.10801122 -0.2320182 0.71300006
0.11140468 -0.2320182 0.71300006
0.11463713 -0.23169278 0.71200001
0.11802582 -0.23169278 0.71200001
0.121244 -0.23136736 0.71100003
0.12445266 -0.23104197 0.71000004
0.12747175 -0.23039113 0.708
0.13028701 -0.22941491 0.70500004
0.13307369 -0.22843868 0.70200002
0.1354432 -0.22681162 0.69700003
0.13776508 -0.22518456 0.69200003
0.1396317 -0.22290669 0.68500006
0 -0 0
0.14380513 -0.21932715 0.67400002
0.14614049 -0.21802551 0.67000002
0.14910643 -0.21770011 0.66900003
0.15206282 -0.2173747 0.66800004
0.1547773 -0.21672386 0.66600001
0.15770993 -0.21639846 0.66500002
0.16063301 -0.21607305 0.66400003
0.16379327 -0.21607305 0.66400003
0.16670208 -0.21574764 0.66300005
0.16985758 -0.21574764 0.66300005
0.17301306 -0.21574764 0.66300005
0.17590283 -0.21542223 0.66200006
0 -0 0
0 -0 0
0 -0 0
0 -0 0
0 -0 0
0 -0 0
0 -0 0
0 -0 0
0 -0 0
0 -0 0
0 -0 0
0 -0 0
1.4410535 -1.431484 4.3990002
1.4526844 -1.4223725 4.3710003
1.4734879 -1.4223725 4.3710003
1.4942913 -1.4223725 4.3710003
1.5150946 -1.4223725 4.3710003
1.5358981 -1.4223725 4.3710003
1.5463731 -1.4129354 4.342
1.5670385 -1.4129354 4.342
1.5877039 -1.4129354 4.342
1.6083692 -1.4129354 4.342
1.6290345 -1.4129354 4.342
1.6497 -1.4129354 4.342
1.6703653 -1.4129354 4.342
1.6910306 -1.4129354 4.342
1.7116961 -1.4129354 4.342
1.7439319 -1.4223725 4.3710003
1.7647352 -1.4223725 4.3710003
1.7855387 -1.4223725 4.3710003
1.806342 -1.4223725 4.3710003
1.8388499 -1.431484 4.3990002
1.8597865 -1.431484 4.3990002
1.8807231 -1.431484 4.3990002
1.9016598 -1.431484 4.3990002
1.9225965 -1.431484 4.3990002
1.9311624 -1.4223725 4.3710003
1.9519658 -1.4223725 4.3710003
1.9596804 -1.4129354 4.342
1.9803457 -1.4129354 4.342
1.9881074 -1.403824 4.3140001
2.0086396 -1.403824 4.3140001
2.0291717 -1.403824 4.3140001
2.0497038 -1.403824 4.3140001
2.0702357 -1.403824 4.3140001
2.1043379 -1.4129354 4.342
2.1250033 -1.4129354 4.342
2.1456687 -1.4129354 4.342
2.1523643 -1.403824 4.3140001
2.1728964 -1.403824 4.3140001
2.1934285 -1.403824 4.3140001
2.2139604 -1.403824 4.3140001
2.2344928 -1.403824 4.3140001
2.2550249 -1.403824 4.3140001
2.2755568 -1.403824 4.3140001
2.2960889 -1.403824 4.3140001
2.3166211 -1.403824 4.3140001
2.3371532 -1.403824 4.3140001
2.3576853 -1.403824 4.3140001
2.3782175 -1.403824 4.3140001
2.3987494 -1.403824 4.3140001
2.4192815 -1.403824 4.3140001
2.4398139 -1.403824 4.3140001
2.4603457 -1.403824 4.3140001
2.4808779 -1.403824 4.3140001
2.50141 -1.403824 4.3140001
2.5219419 -1.403824 4.3140001
2.5424743 -1.403824 4.3140001
2.5630064 -1.403824 4.3140001
2.5835383 -1.403824 4.3140001
2.6040704 -1.403824 4.3140001
2.608176 -1.3950379 4.2870002
2.6285796 -1.3950379 4.2870002
2.6322997 -1.3862518 4.2600002
2.6525748 -1.3862518 4.2600002
2.6559093 -1.3774657 4.2330003
2.6596189 -1.369005 4.2070003
2.679642 -1.369005 4.2070003
2.6823385 -1.3602189 4.1800003
2.7022328 -1.3602189 4.1800003
2.7397103 -1.369005 4.2070003
2.759733 -1.369005 4.2070003
2.7797561 -1.369005 4.2070003
2.8170822 -1.3774657 4.2330003
2.8372285 -1.3774657 4.2330003
2.8756008 -1.3862518 4.2600002
2.8958759 -1.3862518 4.2600002
2.8976684 -1.3774657 4.2330003
2.917815 -1.3774657 4.2330003
2.9379616 -1.3774657 4.2330003
2.9581079 -1.3774657 4.2330003
2.9782548 -1.3774657 4.2330003
2.9984014 -1.3774657 4.2330003
3.0378015 -1.3862518 4.2600002
3.0580766 -1.3862518 4.2600002
3.0783517 -1.3862518 4.2600002
3.0986266 -1.3862518 4.2600002
3.118902 -1.3862518 4.2600002
3.1391771 -1.3862518 4.2600002
3.1594522 -1.3862518 4.2600002
3.1797271 -1.3862518 4.2600002
3.2000024 -1.3862518 4.2600002
3.2202775 -1.3862518 4.2600002
3.2405524 -1.3862518 4.2600002
3.2401605 -1.3774657 4.2330003
3.2402816 -1.369005 4.2070003
3.2393801 -1.3602189 4.1800003
3.2397811 -1.3520836 4.1550002
3.2595565 -1.3520836 4.1550002
3.2793317 -1.3520836 4.1550002
3.2991071 -1.3520836 4.1550002
3.3188827 -1.3520836 4.1550002
3.3177662 -1.3436229 4.1290002
3.3374178 -1.3436229 4.1290002
3.3570695 -1.3436229 4.1290002
3.3562756 -1.3354876 4.1040001
3.3963726 -1.3436229 4.1290002
3.4160242 -1.3436229 4.1290002
3.4356756 -1.3436229 4.1290002
3.4553275 -1.3436229 4.1290002
3.453939 -1.3354876 4.1040001
3.4734714 -1.3354876 4.1040001
3.4717259 -1.3273523 4.079
3.4705989 -1.3195425 4.0550003
3.4683819 -1.3114072 4.0300002
3.4875624 -1.3114072 4.0300002
3.4858589 -1.3035973 4.006
3.504925 -1.3035973 4.006
3.5239913 -1.3035973 4.006
3.5642843 -1.3114072 4.0300002
3.5834646 -1.3114072 4.0300002
3.624994 -1.3195425 4.0550003
3.6442935 -1.3195425 4.0550003
3.6635928 -1.3195425 4.0550003
3.6828923 -1.3195425 4.0550003
3.7241035 -1.3273523 4.079
3.7664607 -1.3354876 4.1040001
3.7859936 -1.3354876 4.1040001
3.8287082 -1.3436229 4.1290002
0 -0 0
0 -0 0
0 -0 0
0 -0 0
0 -0 0
0 -0 0
0 -0 0
0 -0 0
0 -0 0
0 -0 0
0 -0 0
0 -0 0
0 -0 0
-0 -0 0
-0 -0 0
-0 -0 0
-0 -0 0
-0 -0 0
-0 -0 0
-0 -0 0
-0 -0 0
-0 -0 0
-0 -0 0
-0 -0 0
-0 -0 0
-0 -0 0
-0.97857159 -0.32610291 1.0170001
-0.97373128 -0.32610291 1.0170001
-0.96984357 -0.32642353 1.018
-0.9659465 -0.3267442 1.0190001
-0.96298301 -0.32738549 1.021
-0.96000046 -0.3280268 1.023
-0.95699894 -0.32866812 1.0250001
-0.95490718 -0.32963005 1.028
-0.95371109 -0.33091268 1.0320001
-0.95247686 -0.33219528 1.036
-0.95029002 -0.33315724 1.039
-0.94898444 -0.33443987 1.0430001
-0.94764072 -0.33572245 1.0470001
-0.94625896 -0.33700505 1.051
-0.94483924 -0.33828768 1.0550001
-0.94338125 -0.33957025 1.059
-0.94188541 -0.34085289 1.0630001
-0.94035131 -0.34213549 1.067
-0.93877923 -0.34341812 1.0710001
-0.93716902 -0.34470069 1.075
-0.93552071 -0.3459833 1.079
-0.93469667 -0.34758657 1.0840001
-0.93296754 -0.34886917 1.0880001
-0.93120021 -0.35015178 1.092
-0.9293949 -0.35143441 1.0960001
-0.92755151 -0.35271698 1.1
-0.92567009 -0.35399961 1.1040001
-0.92375046 -0.35528222 1.108
-0.92179286 -0.35656485 1.1120001
-0.91897297 -0.35752675 1.115
-0.91694397 -0.35880938 1.1190001
-0.91569149 -0.36041266 1.1240001
-0.91358161 -0.36169523 1.128
-0.91143364 -0.36297786 1.1320001
-0.90924746 -0.36426046 1.136
-0.90781897 -0.36586371 1.141
-0.90555203 -0.36714634 1.1450001
-0.90403306 -0.36874959 1.1500001
-0.9024666 -0.37035286 1.1550001
-0.90007579 -0.37163544 1.159
-0.89919066 -0.37355939 1.1650001
-0.89824837 -0.37548324 1.171
-0.89724904 -0.37740719 1.177
-0.89619255 -0.37933111 1.1830001
-0.89507896 -0.381255 1.189
-0.89390826 -0.38317892 1.1950001
-0.89268047 -0.38510284 1.2010001
-0.89139557 -0.38702673 1.207
-0.89005351 -0.38895065 1.2130001
-0.88865441 -0.39087456 1.2190001
-0.88719809 -0.39279845 1.225
-0.88568473 -0.39472237 1.2310001
-0.88339949 -0.39632565 1.2360001
-0.88177675 -0.39824957 1.2420001
-0.88009673 -0.40017346 1.248
-0.87765914 -0.4017767 1.253
-0.87586981 -0.40370065 1.2590001
-0.87402332 -0.40562457 1.2650001
-0.87143344 -0.40722781 1.2700001
-0.86879611 -0.40883109 1.2750001
-0.86678767 -0.41075495 1.281
-0.86472219 -0.4126789 1.2870001
-0.86259967 -0.41460282 1.2930001
-0.86108232 -0.41684735 1.3000001
-0.85884076 -0.4187713 1.3060001
-0.85719496 -0.42101583 1.3130001
-0.85548246 -0.42326039 1.3200001
-0.85370332 -0.42550495 1.327
-0.85121912 -0.42742887 1.3330001
-0.84931147 -0.42967343 1.34
-0.84607911 -0.43127668 1.345
-0.84342355 -0.4332006 1.3510001
-0.84009123 -0.43480387 1.3560001
-0.83671135 -0.43640712 1.3610001
-0.83389395 -0.43833104 1.3670001
-0.83101934 -0.44025493 1.373
-0.82808763 -0.44217885 1.3790001
-0.82509893 -0.44410276 1.3850001
-0.82264394 -0.44634733 1.3920001
-0.82012236 -0.44859189 1.399
-0.81753421 -0.45083645 1.406
-0.81487942 -0.45308104 1.4130001
-0.81215787 -0.45532557 1.4200001
-0.80936974 -0.45757014 1.427
-0.80595273 -0.45949405 1.4330001
-0.80303609 -0.46173862 1.4400001
-0.79949993 -0.46366253 1.4460001
-0.79590672 -0.46558642 1.452
-0.79279977 -0.46783102 1.4590001
-0.78908747 -0.4697549 1.465
-0.78585213 -0.4719995 1.4720001
-0.78149176 -0.47360274 1.4770001
-0.77760816 -0.47552663 1.483
-0.77262837 -0.47680926 1.4870001
-0.76709563 -0.47777122 1.4900001
-0.76306444 -0.47969511 1.4960001
-0 -0 0
-0 -0 0
-0 -0 0
-0 -0 0
-0 -0 0
-0 -0 0
-0 -0 0
-0 -0 0
-0 -0 0
-0 -0 0
-0 -0 0
-0.38048381 -0.26934752 0.84000003
-0.37603769 -0.26902688 0.83900005
-0.3716011 -0.26870623 0.83800006
-0.36673537 -0.26806492 0.83600003
-0.36275649 -0.26806492 0.83600003
-0.35834846 -0.26774427 0.83500004
-0.35394996 -0.26742363 0.83400005
-0.34956098 -0.26710296 0.83300006
-0.34476662 -0.26646164 0.83100003
-0.34040144 -0.266141 0.83000004
-0.33604574 -0.26582035 0.82900006
-0.33169961 -0.26549971 0.82800007
-0.32696712 -0.26485839 0.82600003
-0.32225367 -0.26421711 0.82400006
-0.31794557 -0.26389644 0.82300001
-0.31364703 -0.26357579 0.82200003
-0.30898118 -0.26293451 0.82000005
-0.30470642 -0.26261383 0.81900007
-0.30007386 -0.26197252 0.81700003
-0.29582292 -0.26165187 0.81600004
-0.29158148 -0.26133123 0.81500006
-0.28734952 -0.26101056 0.81400001
-0.28277886 -0.26036927 0.81200004
-0.27857074 -0.26004863 0.81100005
-0.27403337 -0.25940731 0.80900002
-0.26984906 -0.25908667 0.80800003
-0.26534504 -0.25844538 0.80600005
-0.26086003 -0.25780407 0.80400002
-0.25671378 -0.25748339 0.80300003
-0.25257704 -0.25716275 0.80200005
-0.24844982 -0.25684211 0.80100006
-0.24402669 -0.25620079 0.79900002
-0.23992328 -0.25588015 0.79800004
-0.23582935 -0.2555595 0.79700005
-0.23174499 -0.25523886 0.79600006
-0.2276701 -0.25491819 0.79500002
-0.22332314 -0.2542769 0.79300004
-0.2189952 -0.25363559 0.79100001
-0.21495841 -0.25331494 0.79000002
-0.2106638 -0.25267363 0.78800005
-0.20665081 -0.25235298 0.78700006
-0.20264733 -0.25203231 0.78600001
-0.19865336 -0.25171167 0.78500003
-0.19466893 -0.25139102 0.78400004
-0.190694 -0.25107038 0.78300005
-0.1867286 -0.25074974 0.78200006
-0.18277271 -0.25042906 0.78100002
-0.17882635 -0.25010842 0.78000003
-0.1748895 -0.24978776 0.77900004
-0.17074244 -0.24914645 0.77700001
-0.16682938 -0.2488258 0.77600002
-0.16292585 -0.24850516 0.77500004
-0.15903184 -0.2481845 0.77400005
-0.15514736 -0.24786386 0.77300006
-0.15127237 -0.2475432 0.77200001
-0.14721572 -0.2469019 0.77000004
-0.14336456 -0.24658126 0.76900005
-0.13934122 -0.24593994 0.76700002
-0.13551384 -0.24561928 0.76600003
-0.13169599 -0.24529864 0.76500005
-0.12788765 -0.244978 0.76400006
-0.12408881 -0.24465732 0.76300001
-0.12029952 -0.24433668 0.76200002
-0.11651973 -0.24401604 0.76100004
-0.11274946 -0.24369538 0.76000005
-0.10898871 -0.24337474 0.75900006
-0.10523748 -0.24305406 0.75800002
-0.1013617 -0.24241278 0.75600004
-0.097504944 -0.24177146 0.75400001
-0.093667232 -0.24113016 0.75200003
-0.089968361 -0.24080952 0.75100005
-0.086279012 -0.24048887 0.75000006
-0.082599163 -0.2401682 0.74900001
-0.078928851 -0.23984756 0.74800003
-0.075368807 -0.23984756 0.74800003
-0.07171277 -0.23952691 0.74700004
-0.068066247 -0.23920625 0.74600005
-0.064429246 -0.23888561 0.74500006
-0.060883481 -0.23888561 0.74500006
-0.057260755 -0.23856494 0.74400002
-0.053719752 -0.23856494 0.74400002
-0.050111305 -0.2382443 0.74300003
-0.046512377 -0.23792365 0.74200004
-0.04292297 -0.23760301 0.74100006
-0.03928991 -0.23696169 0.73900002
-0.035724301 -0.23664103 0.73800004
-0.03212456 -0.23599975 0.73600006
-0.028543856 -0.23535843 0.73400003
-0.025016319 -0.23503779 0.73300004
-0.02152767 -0.23503779 0.73300004
-0.018014414 -0.23471713 0.73200005
-0.014530524 -0.23471713 0.73200005
-0.011031542 -0.23439647 0.73100001
-0.0075420812 -0.23407581 0.73000002
-0.0040677106 -0.23407581 0.73000002
-0.00059334037 -0.23407581 0.73000002
0.0028770834 -0.23375517 0.72900003
0.0063466947 -0.23375517 0.72900003
0.0097624436 -0.23247257 0.72500002
0.013158343 -0.23151062 0.72200006
0 -0 0
0 -0 0
0 -0 0
0 -0 0
0 -0 0
0 -0 0
0 -0 0
0 -0 0
0 -0 0
0 -0 0
0 -0 0
0 -0 0
0 -0 0
0 -0 0
0 -0 0
0 -0 0
0 -0 0
0.074076608 -0.22862475 0.71300006
0.077904679 -0.22990735 0.71700001
0.081657425 -0.23086931 0.72000003
0.085202366 -0.23118995 0.72100002
0.088633902 -0.23118995 0.72100002
0.092065439 -0.23118995 0.72100002
0.095496975 -0.23118995 0.72100002
0.098791301 -0.23086931 0.72000003
0.10221808 -0.23086931 0.72000003
0.10564486 -0.23086931 0.72000003
0.10876866 -0.23022801 0.71800005
0.11218592 -0.23022801 0.71800005
0.11560318 -0.23022801 0.71800005
0.11885465 -0.22990735 0.71700001
0.12226715 -0.22990735 0.71700001
0.12550437 -0.22958669 0.71600002
0.12819193 -0.22830409 0.71200001
0.13102622 -0.22734214 0.70900005
0.13383195 -0.22638018 0.70600003
0 -0 0
0 -0 0
0 -0 0
0 -0 0
0 -0 0
0.14592238 -0.21451606 0.66900003
0.14866067 -0.21387477 0.66700006
0.15183519 -0.21387477 0.66700006
0.1547773 -0.2135541 0.66600001
0.15770993 -0.21323346 0.66500002
0.16063301 -0.21291281 0.66400003
0.16354659 -0.21259215 0.66300005
0.16670208 -0.21259215 0.66300005
0.16985758 -0.21259215 0.66300005
0.17301306 -0.21259215 0.66300005
0.17590283 -0.21227151 0.66200006
0 -0 0
0 -0 0
0 -0 0
0 -0 0
0 -0 0
0 -0 0
0 -0 0
0 -0 0
0 -0 0
0 -0 0
0 -0 0
0 -0 0
1.4410535 -1.4105474 4.3990002
1.4619901 -1.4105474 4.3990002
1.4829268 -1.4105474 4.3990002
1.5038635 -1.4105474 4.3990002
1.5150946 -1.4015691 4.3710003
1.5358981 -1.4015691 4.3710003
1.5463731 -1.3922701 4.342
1.5670385 -1.3922701 4.342
1.5877039 -1.3922701 4.342
1.6083692 -1.3922701 4.342
1.6290345 -1.3922701 4.342
1.6497 -1.3922701 4.342
1.6815218 -1.4015691 4.3710003
1.7023251 -1.4015691 4.3710003
1.7231286 -1.4015691 4.3710003
1.7439319 -1.4015691 4.3710003
1.7647352 -1.4015691 4.3710003
1.7855387 -1.4015691 4.3710003
1.806342 -1.4015691 4.3710003
1.8388499 -1.4105474 4.3990002
1.8597865 -1.4105474 4.3990002
1.8807231 -1.4105474 4.3990002
1.9016598 -1.4105474 4.3990002
1.9225965 -1.4105474 4.3990002
1.9435331 -1.4105474 4.3990002
1.9519658 -1.4015691 4.3710003
1.9727691 -1.4015691 4.3710003
1.9935725 -1.4015691 4.3710003
2.0010111 -1.3922701 4.342
2.0216765 -1.3922701 4.342
2.0423419 -1.3922701 4.342
2.0630074 -1.3922701 4.342
2.0836725 -1.3922701 4.342
2.0907679 -1.383292 4.3140001
2.1113 -1.383292 4.3140001
2.1318321 -1.383292 4.3140001
2.1523643 -1.383292 4.3140001
2.1728964 -1.383292 4.3140001
2.1934285 -1.383292 4.3140001
2.2139604 -1.383292 4.3140001
2.2344928 -1.383292 4.3140001
2.2550249 -1.383292 4.3140001
2.2613149 -1.3746343 4.2870002
2.2817185 -1.3746343 4.2870002
2.3166211 -1.383292 4.3140001
2.3371532 -1.383292 4.3140001
2.3576853 -1.383292 4.3140001
2.3782175 -1.383292 4.3140001
2.3987494 -1.383292 4.3140001
2.4192815 -1.383292 4.3140001
2.4398139 -1.383292 4.3140001
2.4603457 -1.383292 4.3140001
2.4808779 -1.383292 4.3140001
2.50141 -1.383292 4.3140001
2.5219419 -1.383292 4.3140001
2.5424743 -1.383292 4.3140001
2.5630064 -1.383292 4.3140001
2.5835383 -1.383292 4.3140001
2.5877724 -1.3746343 4.2870002
2.608176 -1.3746343 4.2870002
2.6120245 -1.3659767 4.2600002
2.6322997 -1.3659767 4.2600002
2.6525748 -1.3659767 4.2600002
2.6559093 -1.3573191 4.2330003
2.6596189 -1.3489822 4.2070003
2.679642 -1.3489822 4.2070003
2.6996646 -1.3489822 4.2070003
2.7196875 -1.3489822 4.2070003
2.7397103 -1.3489822 4.2070003
2.759733 -1.3489822 4.2070003
2.7797561 -1.3489822 4.2070003
2.7997789 -1.3489822 4.2070003
2.8372285 -1.3573191 4.2330003
2.8573751 -1.3573191 4.2330003
2.8775218 -1.3573191 4.2330003
2.8976684 -1.3573191 4.2330003
