# .PCD v0.7 - Point Cloud Data file format
VERSION 0.7
FIELDS x y z
SIZE 4 4 4
TYPE F F F
COUNT 1 1 1
WIDTH 1635
HEIGHT 1
VIEWPOINT 0 0 0 1 0 0 0
POINTS 1635
DATA ascii
-0.66417336 -0.84841108 4.2070003
-0.64813143 -0.85365444 4.2330003
-0.63199037 -0.85909939 4.2600002
-0.61559236 -0.86454439 4.2870002
-0.5951888 -0.86454439 4.2870002
-0.5784052 -0.8699894 4.3140001
-0.55787313 -0.8699894 4.3140001
-0.53397799 -0.86454439 4.2870002
-0.51033986 -0.85909939 4.2600002
-0.49006477 -0.85909939 4.2600002
-0 -0 0
-0 -0 0
-0 -0 0
-0 -0 0
-0 -0 0
-0 -0 0
-0 -0 0
-0.14884719 -0.39002308 1.9340001
-0.13935366 -0.38921639 1.9300001
-0.12989822 -0.38840973 1.9260001
-0.12035547 -0.38719973 1.9200001
-0.11086985 -0.38598973 1.914
-0.10154767 -0.38518307 1.9100001
-0.092360392 -0.38477975 1.9080001
-0.08319214 -0.38437641 1.9060001
-0.074120693 -0.38437641 1.9060001
-0.065083385 -0.38457808 1.9070001
-0.056065924 -0.38498139 1.909
-0.047029432 -0.38538474 1.9110001
-0.037993744 -0.38598973 1.914
-0.028929504 -0.38659474 1.9170001
-0.019847039 -0.3874014 1.9210001
-0.010726498 -0.38820806 1.9250001
-0.0015678817 -0.38901475 1.9290001
0.0076169698 -0.38921639 1.9300001
0.016846163 -0.39022473 1.9350001
0.026096022 -0.39082974 1.9380001
0.035629582 -0.39425805 1.955
0.045347951 -0.39788806 1.973
0.055154424 -0.40091306 1.988
0.064843655 -0.40232474 1.9950001
0.074450471 -0.40292972 1.9980001
0.084001794 -0.4031314 1.9990001
0.093515866 -0.4031314 1.9990001
0.10302992 -0.4031314 1.9990001
0.11220619 -0.40192139 1.9930001
0.12150852 -0.4013164 1.9900001
0.13071647 -0.40050972 1.9860001
0.13903941 -0.39728308 1.9700001
0.14743607 -0.3946614 1.9570001
0.15626964 -0.39345139 1.9510001
0.1648764 -0.39183807 1.9430001
0.17367586 -0.39082974 1.9380001
0.18242772 -0.38982141 1.9330001
0.19033891 -0.38719973 1.9200001
0.19926919 -0.38679641 1.9180001
0.20665927 -0.38356975 1.9020001
0.21423732 -0.38094807 1.8890001
0.22263698 -0.37993973 1.8840001
0.23049732 -0.37812474 1.8750001
0.2383997 -0.37651142 1.8670001
0.24675572 -0.37570474 1.863
0.25493643 -0.3746964 1.858
0.26306957 -0.37368807 1.853
0.2710084 -0.3724781 1.8470001
0.2788901 -0.37126806 1.8410001
0.28655845 -0.36985642 1.8340001
0.29416016 -0.36844477 1.8270001
0.30169523 -0.36703306 1.8200001
0.30916369 -0.36562142 1.8130001
0.31674078 -0.36441141 1.807
0.3231805 -0.36199141 1.7950001
0.33079961 -0.36098307 1.7900001
0.33837116 -0.35997474 1.7850001
0.34550646 -0.3585631 1.7780001
0.35416773 -0.35876474 1.779
0.3593733 -0.3555381 1.7630001
0.36651251 -0.3543281 1.7570001
0.37359461 -0.35311809 1.751
0.38083777 -0.35210976 1.7460001
0.3880333 -0.35110143 1.7410001
0.39495361 -0.34989142 1.7350001
0.40204918 -0.34888309 1.7300001
0.40886003 -0.34767309 1.7240001
0.41561371 -0.34646308 1.7180001
0.42206368 -0.34505144 1.7110001
0.42894983 -0.34404311 1.7060001
0.43476364 -0.34222808 1.697
0.44049177 -0.34041309 1.6880001
0.44613424 -0.3385981 1.6790001
0.45060915 -0.33597645 1.6660001
0.45661166 -0.33456478 1.659
0.46310759 -0.33355644 1.654
0.46955588 -0.33254811 1.649
0.47624612 -0.33174145 1.6450001
0.48348683 -0.33133811 1.6430001
0.49100748 -0.33113644 1.6420001
0.49912623 -0.33133811 1.6430001
0.50787157 -0.33194309 1.646
0.51664549 -0.33254811 1.649
0.52576602 -0.33335477 1.6530001
0.53492469 -0.33416143 1.6570001
0.54903519 -0.33799312 1.6760001
0.56066769 -0.34021142 1.687
0.57206792 -0.34222808 1.697
0.58971685 -0.34787476 1.725
0.59896666 -0.34847975 1.728
0.61000204 -0.3500931 1.7360001
0.62111354 -0.35170642 1.7440001
0.63591015 -0.35533643 1.7620001
0.64758724 -0.35715142 1.771
0.66749918 -0.36340308 1.802
0.67645085 -0.36360475 1.8030001
0.68731171 -0.36481476 1.8090001
0.70323074 -0.36864641 1.8280001
0.7158255 -0.37066308 1.8380001
0.72693866 -0.37187308 1.8440001
0.73651296 -0.3722764 1.8460001
0.74933618 -0.37429306 1.8560001
0.76674813 -0.37852809 1.8770001
0.78353339 -0.38235974 1.8960001
0.80258965 -0.38719973 1.9200001
0.82779312 -0.39486307 1.9580001
0.83582944 -0.39425805 1.955
0.85421228 -0.39849305 1.9760001
0.87017268 -0.40151805 1.9910001
0.8814159 -0.40232474 1.9950001
0.90207523 -0.40736637 2.02
0.91575122 -0.40918139 2.029
0.93681031 -0.41422305 2.0540001
0.9507339 -0.41603807 2.0630002
0.97358954 -0.42168471 2.0910001
0.98354143 -0.42168471 2.0910001
1.0186752 -0.43237302 2.1440001
1.0245603 -0.43055803 2.135
1.0419915 -0.43358302 2.1500001
1.0673958 -0.43983468 2.181
1.0851885 -0.44285971 2.1960001
1.1011283 -0.44507802 2.207
1.1282541 -0.45173299 2.24
1.1663712 -0.46262303 2.2940001
1.2065418 -0.47411799 2.3510001
1.2498449 -0.48662132 2.4130001
1.2942609 -0.49932632 2.4760001
1.3223971 -0.50557798 2.5070002
1.3401836 -0.50779635 2.5180001
1.3645189 -0.51243466 2.5410001
1.3993664 -0.52090466 2.5830002
1.4122065 -0.5211063 2.5840001
1.4217485 -0.52009797 2.5790002
1.4329108 -0.51969463 2.5770001
1.4519055 -0.52211463 2.5890002
1.463662 -0.52191299 2.5880001
1.4742683 -0.52130795 2.585
1.4790955 -0.51868629 2.572
1.4884377 -0.51767796 2.5670002
1.4953935 -0.515863 2.5580001
1.5046214 -0.51485467 2.5530002
1.5138016 -0.51384634 2.5480001
1.5235331 -0.51303965 2.5440001
1.5277938 -0.510418 2.5310001
1.530714 -0.50739294 2.516
1.5279729 -0.50255299 2.4920001
1.5491022 -0.50557798 2.5070002
1.5261645 -0.49428469 2.4510002
1.5472412 -0.49730965 2.4660001
1.535587 -0.48984802 2.4290001
1.5522431 -0.49146131 2.437
1.5548579 -0.48863798 2.4230001
1.5735011 -0.49085632 2.434
1.5837831 -0.490453 2.4320002
1.5940459 -0.49004966 2.4300001
1.5963609 -0.48722634 2.4160001
1.6065286 -0.48682299 2.414
1.6166773 -0.48641968 2.4120002
1.6335572 -0.488033 2.4200001
1.6437155 -0.48762968 2.4180002
1.6449555 -0.48460466 2.4030001
1.6557032 -0.48440301 2.4020002
1.6657472 -0.48399967 2.4000001
1.6750731 -0.48339465 2.3970001
1.6759279 -0.48036969 2.3820002
1.6929315 -0.48198301 2.3900001
1.6936098 -0.47895798 2.375
1.7034779 -0.47855467 2.3730001
1.7140495 -0.47835302 2.3720002
1.7238839 -0.47794968 2.3700001
1.7329673 -0.47734466 2.3670001
1.7420222 -0.47673967 2.3640001
1.7517903 -0.47633636 2.3620002
1.7592998 -0.475328 2.3570001
1.7690153 -0.47492465 2.355
1.7779559 -0.47431967 2.352
1.7708933 -0.46947968 2.3280001
1.7789116 -0.46867302 2.3240001
1.7868917 -0.46786636 2.3200002
1.7925086 -0.46645468 2.3130002
1.801178 -0.4658497 2.3100002
1.8043274 -0.46383303 2.3000002
1.8144846 -0.46363133 2.299
1.8246325 -0.46342969 2.2980001
1.834771 -0.46322802 2.2970002
1.8457032 -0.46322802 2.2970002
1.8558273 -0.46302631 2.296
1.865942 -0.46282467 2.2950001
1.876047 -0.46262303 2.2940001
1.8861426 -0.46242139 2.2930002
1.8962286 -0.46221969 2.2920001
1.9046407 -0.46161467 2.289
1.910514 -0.46040466 2.283
1.9196967 -0.46000135 2.2810001
1.9288599 -0.459598 2.279
1.9380046 -0.45919469 2.2770002
1.9488418 -0.45919469 2.2770002
1.9596789 -0.45919469 2.2770002
1.9982088 -0.465648 2.309
0 -0 0
0 -0 0
0 -0 0
0 -0 0
0 -0 0
0 -0 0
0 -0 0
0 -0 0
1.6339145 -0.36279809 1.7990001
1.6415637 -0.36259642 1.7980001
1.6482855 -0.36219311 1.7960001
0 -0 0
0 -0 0
0 -0 0
0 -0 0
0 -0 0
0 -0 0
0 -0 0
0 -0 0
0 -0 0
0 -0 0
0 -0 0
0 -0 0
0 -0 0
0 -0 0
0 -0 0
-0 -0 0
-0 -0 0
-0 -0 0
-0 -0 0
-0 -0 0
-0 -0 0
-0 -0 0
-0 -0 0
-0 -0 0
-0 -0 0
-2.3455343 -0.4729709 2.4020002
-2.3360455 -0.47336468 2.404
-2.3246038 -0.47336468 2.404
-2.3141246 -0.47356161 2.4050002
-2.3132102 -0.47572759 2.4160001
-2.302664 -0.47592449 2.4170001
-2.2949522 -0.47671211 2.421
-2.2862594 -0.47730282 2.424
-2.2775378 -0.47789356 2.427
-2.2697213 -0.47868121 2.4310002
-2.2609379 -0.47927189 2.434
-2.2512016 -0.47966573 2.4360001
-2.2432852 -0.48045334 2.4400001
-2.2335017 -0.48084718 2.4420002
-2.222789 -0.48104405 2.4430001
-2.2111616 -0.48104405 2.4430001
-2.2076375 -0.48281625 2.4520001
-0 -0 0
-0 -0 0
-0 -0 0
-0 -0 0
-0 -0 0
-0 -0 0
-0 -0 0
-2.2858679 -0.52200073 2.651
-2.2466681 -0.51589662 2.6200001
-2.2674556 -0.52357602 2.6590002
-2.2955036 -0.53302753 2.707
-2.3188789 -0.54149461 2.7500002
-2.3334601 -0.54799253 2.7830002
-2.3443918 -0.55370277 2.812
-2.3616798 -0.56098837 2.8490002
-2.3753185 -0.56748629 2.8820002
-2.3976567 -0.57615018 2.9260001
-2.4203911 -0.58501107 2.9710002
-2.4410772 -0.59347802 3.0140002
-2.4597435 -0.60155123 3.0550001
-2.4700158 -0.60765535 3.0860002
-2.472832 -0.61198729 3.108
-2.4596217 -0.6123811 3.1100001
-2.4463921 -0.61277497 3.1120002
-2.4331436 -0.61316872 3.1140001
-2.4190993 -0.61336565 3.1150002
-2.4058173 -0.61375946 3.1170001
-2.3925166 -0.61415327 3.1190002
-2.3784342 -0.6143502 3.1200001
-2.3673725 -0.61533475 3.1250002
-2.3502412 -0.61474401 3.1220002
-2.3376265 -0.61533475 3.1250002
-2.3220098 -0.61513782 3.1240001
-2.3086185 -0.61553162 3.1260002
-2.2952082 -0.61592549 3.1280003
-2.2810497 -0.61612236 3.1290002
-2.2668817 -0.61631924 3.1300001
-2.2541432 -0.61690998 3.1330001
-2.2449496 -0.61848521 3.141
-2.2342603 -0.6196667 3.1470001
-2.2221034 -0.62045431 3.1510003
-2.2190139 -0.62380177 3.1680002
-2.2067189 -0.62458938 3.1720002
-2.1936948 -0.62518007 3.1750002
-2.2012272 -0.63167804 3.2080002
-2.1873217 -0.63207179 3.21
-2.1936967 -0.63837284 3.2420001
-2.176923 -0.63797909 3.2400002
-2.1781809 -0.64290172 3.2650001
-2.1639662 -0.64329553 3.2670002
-2.1760368 -0.65156567 3.3090003
-2.1615937 -0.65195942 3.3110001
-2.1477795 -0.65255016 3.3140001
-2.1365099 -0.65392852 3.3210001
-2.1213429 -0.65412545 3.3220003
-2.1232786 -0.65963882 3.3500001
-2.1167705 -0.66259247 3.3650002
-2.1182353 -0.66810584 3.3930001
-2.0983694 -0.66692436 3.3870001
-2.1062255 -0.67460376 3.4260001
-2.0905299 -0.67480063 3.427
-2.0736141 -0.67460376 3.4260001
-2.0567079 -0.67440689 3.4250002
-2.0398114 -0.67420995 3.4240003
-2.0081496 -0.66909039 3.3980002
-1.9820112 -0.66574293 3.381
-1.9670827 -0.66613674 3.3830001
-1.952135 -0.66653061 3.3850002
-1.9383121 -0.66731822 3.3890002
-1.924451 -0.66810584 3.3930001
-1.9094274 -0.66849965 3.3950002
-1.8943844 -0.66889346 3.3970001
-1.8804283 -0.66968113 3.4010003
-1.8691748 -0.67145324 3.4100001
-1.8583791 -0.67342234 3.4200001
-1.8437177 -0.67401302 3.4230001
-1.8343667 -0.6765728 3.4360001
-1.8201296 -0.67736048 3.4400001
-1.8032329 -0.67716354 3.4390001
-1.7806304 -0.67480063 3.427
-1.7735868 -0.67834502 3.4450002
-1.7577006 -0.6785419 3.4460001
-1.7362466 -0.6765728 3.4360001
-1.7329075 -0.68169242 3.4620001
-1.7417159 -0.69173473 3.5130002
-1.7230319 -0.69094706 3.5090001
-1.7374526 -0.70354915 3.5730002
-1.7204473 -0.70354915 3.5730002
-1.7039186 -0.70374602 3.5740001
-1.6963483 -0.70768416 3.5940001
-1.6703657 -0.70394295 3.5750003
-1.6427138 -0.69941407 3.5520003
-1.6056688 -0.69075012 3.5080001
-1.5871611 -0.68996251 3.5040002
-1.5700358 -0.68976563 3.5030003
-1.5542505 -0.69015944 3.5050001
-1.5384461 -0.69055325 3.5070002
-1.5217547 -0.69055325 3.5070002
-1.5192258 -0.69705117 3.5400002
-1.5028019 -0.6972481 3.5410001
-1.4859488 -0.6972481 3.5410001
-1.4919143 -0.70807797 3.5960002
-1.4747995 -0.70807797 3.5960002
-1.462549 -0.71044087 3.6080003
-1.4622023 -0.71871096 3.6500001
-1.4440389 -0.71831715 3.6480002
-1.4262853 -0.71812022 3.6470001
-1.4228355 -0.72520888 3.6830001
-1.4228586 -0.73426658 3.7290001
-1.4058644 -0.73466045 3.7310002
-1.388479 -0.73485732 3.7320001
-1.3810009 -0.74037075 3.7600002
-1.3525922 -0.73466045 3.7310002
-1.3341193 -0.73426658 3.7290001
-1.3156655 -0.73387283 3.7270002
-1.2853901 -0.72678417 3.6910002
-1.2674797 -0.72658724 3.6900001
-1.2387393 -0.72008932 3.6570001
-1.2213341 -0.72008932 3.6570001
-1.2045875 -0.72048312 3.6590002
-1.1868483 -0.72028625 3.6580002
-1.1697581 -0.72048312 3.6590002
-1.1570674 -0.72343677 3.6740003
-1.1402016 -0.72383052 3.6760001
-1.1379768 -0.7336759 3.7260001
-1.120544 -0.73387283 3.7270002
-1.118784 -0.74450576 3.7810001
-1.1071937 -0.74883777 3.8030002
-1.0951076 -0.75297278 3.8240001
-1.0831031 -0.75730473 3.8460002
-1.0708894 -0.76163673 3.8680003
-1.0587382 -0.76616561 3.8910003
-1.0522496 -0.77502638 3.9360001
-1.0395559 -0.77955526 3.9590001
-1.0269012 -0.78428108 3.9830003
-1.0079443 -0.78428108 3.9830003
-0.98898768 -0.78428108 3.9830003
-0.97003096 -0.78428108 3.9830003
-0.95107418 -0.78428108 3.9830003
-0.93211746 -0.78428108 3.9830003
-0.91843379 -0.78880984 4.006
-0.89936757 -0.78880984 4.006
-0.88030136 -0.78880984 4.006
-0.86123514 -0.78880984 4.006
-0.84216893 -0.78880984 4.006
-0.82803398 -0.79353565 4.0300002
-0.80885357 -0.79353565 4.0300002
-0.78967315 -0.79353565 4.0300002
-0.77049267 -0.79353565 4.0300002
-0.75131232 -0.79353565 4.0300002
-0.73667365 -0.79845834 4.0550003
-0.72162002 -0.80318409 4.079
-0.70651025 -0.80810678 4.1040001
-0.69116241 -0.81302947 4.1290002
-0.67980504 -0.82307178 4.1800003
-0.66417336 -0.82838821 4.2070003
-0.64813143 -0.83350784 4.2330003
-0.63199037 -0.83882433 4.2600002
-0.61171526 -0.83882433 4.2600002
-0.5951888 -0.84414077 4.2870002
-0.57478517 -0.84414077 4.2870002
-0.55438155 -0.84414077 4.2870002
-0.53397799 -0.84414077 4.2870002
-0.51033986 -0.83882433 4.2600002
-0.49006477 -0.83882433 4.2600002
-0 -0 0
-0 -0 0
-0 -0 0
-0 -0 0
-0 -0 0
-0 -0 0
-0 -0 0
-0.14953986 -0.3825905 1.9430001
-0.1400035 -0.38180289 1.9390001
-0.12989822 -0.37924311 1.9260001
-0.12035547 -0.37806165 1.9200001
-0.11086985 -0.3768802 1.914
-0.10149451 -0.37589568 1.909
-0.092311978 -0.37550187 1.9070001
-0.08319214 -0.37530497 1.9060001
-0.074120693 -0.37530497 1.9060001
-0.065049253 -0.37530497 1.9060001
-0.056036558 -0.37569878 1.9080001
-0.047004819 -0.37609258 1.9100001
-0.037973896 -0.37668329 1.9130001
-0.028929504 -0.37747094 1.9170001
-0.019836707 -0.37806165 1.9200001
-0.010720925 -0.3788493 1.9240001
-0.001566256 -0.37944001 1.927
0.0076130233 -0.37983382 1.9290001
0.016846163 -0.38101527 1.9350001
0.025947902 -0.37944001 1.927
0.035738934 -0.38613483 1.9610001
0.045072142 -0.38613483 1.9610001
0.055404119 -0.39322349 1.9970001
0.064843655 -0.39282969 1.9950001
0.07441321 -0.39322349 1.9970001
0.083959781 -0.39342043 1.9980001
0.093422301 -0.39322349 1.9970001
0.10277221 -0.39263278 1.9940001
0.11209358 -0.39204204 1.9910001
0.12144746 -0.39164823 1.9890001
0.13065065 -0.39086062 1.9850001
0.1380513 -0.38515031 1.9560001
0.14736073 -0.38515031 1.9560001
0.15602934 -0.38357505 1.9480001
0.16479154 -0.38239363 1.9420002
0.17349663 -0.38121217 1.9360001
0.18223897 -0.38022763 1.9310001
0.19123113 -0.37983382 1.9290001
0.19989257 -0.3788493 1.9240001
0.20785446 -0.37668329 1.9130001
0.21593851 -0.37491113 1.904
0.22275515 -0.37116992 1.8850001
0.23062025 -0.36939773 1.876
0.2383997 -0.36762559 1.8670001
0.24662328 -0.36664104 1.8620001
0.25493643 -0.3658534 1.858
0.26306957 -0.36486888 1.853
0.27071494 -0.36329362 1.845
0.27828413 -0.36171839 1.8370001
0.28624594 -0.36073384 1.8320001
0.29399917 -0.35955238 1.8260001
0.30169523 -0.35837093 1.8200001
0.30882263 -0.35659879 1.8110001
0.31621495 -0.35522044 1.8040001
0.3235406 -0.35384208 1.7970001
0.33098441 -0.35266066 1.7910001
0.33837116 -0.3514792 1.7850001
0.34570077 -0.35029775 1.779
0.35277417 -0.34891939 1.7720001
0.35957712 -0.34734413 1.7640001
0.36651251 -0.3459658 1.7570001
0.373808 -0.34498125 1.7520001
0.38083777 -0.3437998 1.7460001
0.3880333 -0.34281528 1.7410001
0.39518121 -0.34183073 1.7360001
0.40204918 -0.34064931 1.7300001
0.40909716 -0.33966476 1.725
0.41561371 -0.3382864 1.7180001
0.42206368 -0.33690807 1.7110001
0.42894983 -0.33592352 1.7060001
0.43476364 -0.33415136 1.697
0.44049177 -0.33237919 1.6880001
0.44613424 -0.33060706 1.6790001
0.4508796 -0.32824415 1.6670001
0.45716214 -0.32706273 1.6610001
0.4636676 -0.32607818 1.6560001
0.47012538 -0.32509363 1.651
0.47682512 -0.32430601 1.6470001
0.4837811 -0.3237153 1.6440001
0.49130654 -0.3235184 1.6430001
0.49943 -0.3237153 1.6440001
0.50818014 -0.32430601 1.6470001
0.51727211 -0.32509363 1.651
0.52640218 -0.32588127 1.6550001
0.53589314 -0.32686582 1.6600001
0.54608685 -0.32824415 1.6670001
0.56066769 -0.33218229 1.687
0.57139373 -0.33375755 1.6950001
0.58287954 -0.33572662 1.705
0.59862006 -0.34005859 1.7270001
0.60789376 -0.34064931 1.7300001
0.61933279 -0.34242147 1.7390001
0.6387974 -0.34852558 1.7700001
0.6486842 -0.3493132 1.774
0.65823865 -0.34990394 1.7770001
0.67532527 -0.35443279 1.8000001
0.68655181 -0.35581115 1.807
0.69707555 -0.35679567 1.812
0.71855175 -0.36329362 1.845
0.72575605 -0.362506 1.8410001
0.73731089 -0.36388433 1.848
0.74812496 -0.36486888 1.853
0.76715666 -0.36979157 1.8780001
0.78146708 -0.37235135 1.891
0.80217165 -0.37786475 1.9190001
0.82779312 -0.38554412 1.9580001
0.83625698 -0.38515031 1.9560001
0.84772789 -0.38613483 1.9610001
0.87017268 -0.39204204 1.9910001
0.88185769 -0.39302659 1.9960001
0.89626986 -0.39519259 2.0070002
0.91665393 -0.39991835 2.0310001
0.93088114 -0.40188742 2.0410001
0.93921262 -0.40129671 2.0380001
0.96520865 -0.40818846 2.0730002
0.98071921 -0.41055131 2.085
1.0001452 -0.41448945 2.105
1.0250403 -0.42059359 2.1360002
1.0390835 -0.42216885 2.1440001
1.0673958 -0.42945439 2.181
1.0876595 -0.43339258 2.2010002
1.1001306 -0.4341802 2.2050002
1.145883 -0.44796368 2.2750001
1.182133 -0.45780903 2.325
1.2214247 -0.46863893 2.3800001
1.2508808 -0.47553068 2.4150002
1.2937382 -0.4873451 2.4750001
1.3208146 -0.49305543 2.5040002
1.3433771 -0.49699357 2.5240002
1.362371 -0.49955335 2.5370002
1.4009917 -0.50920182 2.5860002
1.4143926 -0.50959557 2.5880001
1.4256074 -0.50920182 2.5860002
1.4451437 -0.51176161 2.5990002
1.4541487 -0.51058018 2.5930002
1.4653587 -0.51018631 2.5910001
1.4748387 -0.50920182 2.5860002
1.4808207 -0.50703579 2.575
1.4895972 -0.50585437 2.569
1.4965627 -0.5040822 2.5600002
1.5052108 -0.50290078 2.5540001
1.5143957 -0.50191623 2.549
1.5235331 -0.50093168 2.5440001
1.5271902 -0.49817502 2.5300002
1.5294973 -0.4950245 2.5140002
1.5230678 -0.48911729 2.4840002
1.5305649 -0.48773894 2.4770002
1.5242965 -0.48202863 2.4480002
1.5284183 -0.47966573 2.4360001
1.5368514 -0.47868121 2.4310002
1.5516063 -0.47966573 2.4360001
1.5612749 -0.47907498 2.4330001
1.5722082 -0.47887811 2.4320002
1.5818294 -0.47828737 2.4290001
1.5848621 -0.47572759 2.4160001
1.5943787 -0.47513685 2.4130001
1.6045321 -0.47474304 2.411
1.6153368 -0.47454613 2.4100001
1.6328822 -0.4763183 2.4190001
1.6382772 -0.47454613 2.4100001
1.6449555 -0.47316778 2.4030001
1.6529459 -0.47218323 2.398
1.6622769 -0.47159255 2.3950002
1.675772 -0.47218323 2.398
1.6780386 -0.46962348 2.3850002
1.6936398 -0.4708049 2.391
1.6936098 -0.46765438 2.375
1.7027601 -0.4670637 2.3720002
1.7126042 -0.46666986 2.3700001
1.7217017 -0.46607915 2.3670001
1.7322352 -0.46588224 2.3660002
1.7412853 -0.4652915 2.3630002
1.7503068 -0.46470079 2.3600001
1.7570604 -0.46351933 2.3540001
1.7667618 -0.4631255 2.352
1.7658612 -0.45997503 2.3360002
1.7693721 -0.45800596 2.3260002
1.7750843 -0.45662758 2.319
1.7861214 -0.45662758 2.319
1.7909586 -0.45505235 2.3110001
1.7996185 -0.4544616 2.3080001
1.8027583 -0.45249254 2.2980001
1.8129061 -0.45229566 2.2970002
1.8246325 -0.45249254 2.2980001
1.8339721 -0.4520987 2.296
1.8440962 -0.45190182 2.2950001
1.8550191 -0.45190182 2.2950001
1.865129 -0.45170492 2.2940001
1.8752292 -0.45150805 2.2930002
1.8844974 -0.45111421 2.2910001
1.8954012 -0.45111421 2.2910001
1.9038087 -0.45052347 2.2880001
1.9130245 -0.45012963 2.286
1.9222214 -0.44973585 2.2840002
1.9280137 -0.4485544 2.2780001
1.9371533 -0.44816056 2.276
1.9479858 -0.44816056 2.276
1.9596789 -0.44835752 2.2770002
0 -0 0
0 -0 0
0 -0 0
0 -0 0
0 -0 0
0 -0 0
0 -0 0
0 -0 0
1.6235453 -0.35384208 1.7970001
1.632098 -0.35384208 1.7970001
1.6397377 -0.35364518 1.7960001
1.6464499 -0.35325134 1.794
0 -0 0
0 -0 0
0 -0 0
0 -0 0
0 -0 0
0 -0 0
0 -0 0
0 -0 0
0 -0 0
0 -0 0
0 -0 0
0 -0 0
0 -0 0
0 -0 0
0 -0 0
-0 -0 0
-0 -0 0
-0 -0 0
-0 -0 0
-0 -0 0
-0 -0 0
-0 -0 0
-0 -0 0
-0 -0 0
-0 -0 0
-0 -0 0
-2.3370175 -0.46211523 2.4050002
-2.3255711 -0.46211523 2.4050002
-2.3150866 -0.46230736 2.4060001
-2.3141675 -0.46442097 2.4170001
-2.3045695 -0.46480528 2.4190001
-2.297796 -0.46576601 2.424
-2.289089 -0.46634245 2.427
-2.2803531 -0.46691889 2.4300001
-2.29493 -0.47229904 2.4580002
-2.2767293 -0.47095403 2.4510002
-2.2807744 -0.47422051 2.4680002
-2.2736247 -0.47518125 2.473
-2.2655134 -0.47594985 2.4770002
-2.2546341 -0.47614199 2.4780002
-2.2437453 -0.47633412 2.4790001
-2.237349 -0.47748703 2.4850001
-0 -0 0
-0 -0 0
-0 -0 0
-0 -0 0
-0 -0 0
-0 -0 0
-0 -0 0
-2.2341318 -0.49785468 2.5910001
-2.2483833 -0.5038113 2.6220002
-2.2708666 -0.51168931 2.6630001
-2.3005915 -0.52129668 2.7130001
-2.3214085 -0.52898258 2.753
-2.3359752 -0.53532344 2.786
-2.3452258 -0.54051149 2.8130002
-2.3616798 -0.54742879 2.8490002
-2.3769667 -0.55415392 2.8840001
-2.3976567 -0.56222415 2.9260001
-2.4195762 -0.57067865 2.97
-2.4410772 -0.57913315 3.0140002
-2.4597435 -0.58701122 3.0550001
-2.4692152 -0.59277564 3.085
-2.4744234 -0.59757936 3.1100001
-2.4604125 -0.59777147 3.1110001
-2.4471781 -0.5981558 3.1130002
-2.4339249 -0.59854007 3.1150002
-2.4198759 -0.59873223 3.1160002
-2.406589 -0.5991165 3.118
-2.3932836 -0.59950083 3.1200001
-2.3791964 -0.59969294 3.1210001
-2.3673725 -0.60046154 3.1250002
-2.3479826 -0.59930867 3.1190002
-2.3353822 -0.59988511 3.1220002
-2.3205233 -0.59988511 3.1220002
-2.3071415 -0.60026938 3.1240001
-2.2930069 -0.60046154 3.1250002
-2.2795916 -0.60084581 3.1270001
-2.2668817 -0.60142231 3.1300001
-2.2541432 -0.60199875 3.1330001
-2.2470939 -0.60411233 3.1440001
-2.2399402 -0.60622597 3.1550002
-2.2333865 -0.60853171 3.1670001
-2.2260184 -0.61064541 3.1780002
-2.2115886 -0.61083752 3.1790001
-2.2151134 -0.61602551 3.2060001
-2.2012272 -0.61640984 3.2080002
-2.1880033 -0.61698627 3.2110002
-2.1943736 -0.62313503 3.2430003
-2.1782668 -0.62294281 3.2420001
-2.1748452 -0.62640148 3.2600002
-2.1613166 -0.62697798 3.2630002
-2.1760368 -0.63581675 3.3090003
-2.1615937 -0.63620102 3.3110001
-2.1484275 -0.63696957 3.3150001
-2.1358666 -0.63793033 3.3200002
-2.13603 -0.64273405 3.3450003
-2.1213772 -0.64311832 3.3470001
-2.1098509 -0.64446336 3.3540001
-2.1182353 -0.65195715 3.3930001
-2.098989 -0.65099639 3.3880002
-2.1062255 -0.65829802 3.4260001
-2.0905299 -0.65849012 3.427
-2.0736141 -0.65829802 3.4260001
-2.0561075 -0.65791374 3.4240003
-2.0392156 -0.65772158 3.4230001
-2.0075586 -0.6527257 3.3970001
-1.9908046 -0.65253359 3.3960001
-1.9752231 -0.6527257 3.3970001
-1.9596322 -0.65291786 3.3980002
-1.9400278 -0.65176499 3.3920002
-1.9278542 -0.65311003 3.3990002
-1.9133643 -0.65368646 3.4020002
-1.898288 -0.65407073 3.404
-1.8920393 -0.65752941 3.4220002
-1.8757527 -0.65752941 3.4220002
-1.8616394 -0.65829802 3.4260001
-1.8480268 -0.65925878 3.4310002
-1.8413069 -0.6627174 3.4490001
-1.8254207 -0.66290951 3.45
-1.807952 -0.66252524 3.4480002
-1.8092077 -0.66905826 3.4820001
-1.7936651 -0.66944259 3.4840002
-1.7786134 -0.67001903 3.4870002
-1.7625228 -0.67021114 3.4880002
-1.7609384 -0.67597556 3.5180001
-1.7417159 -0.67501485 3.5130002
-1.7505296 -0.6850065 3.5650001
-1.7379389 -0.68673587 3.5740001
-1.7339296 -0.69192386 3.6010001
-1.7172678 -0.69211602 3.6020002
-1.6987084 -0.69153959 3.5990002
-1.6708329 -0.6871202 3.5760002
-1.6441011 -0.68308502 3.5550001
-1.6065843 -0.67443842 3.5100002
-1.5885199 -0.67386198 3.5070002
-1.5713804 -0.67366982 3.5060003
-1.5551374 -0.67386198 3.5070002
-1.5393234 -0.67424625 3.5090001
-1.5221887 -0.67405409 3.5080001
-1.519655 -0.68039501 3.5410001
-1.5032263 -0.68058711 3.5420001
-1.5107076 -0.69173169 3.6000001
-1.4935738 -0.69173169 3.6000001
-1.47685 -0.69192386 3.6010001
-1.4811956 -0.70210773 3.6540003
-1.4638047 -0.70210773 3.6540003
-1.4448304 -0.70133907 3.6500001
-1.4431019 -0.70902497 3.6900001
-1.4185859 -0.70556635 3.6720002
-1.4228586 -0.71651876 3.7290001
-1.4054875 -0.71671093 3.7300003
-1.3988963 -0.72247535 3.7600002
-1.3810009 -0.72247535 3.7600002
-1.3631055 -0.72247535 3.7600002
-1.3341193 -0.71651876 3.7290001
-1.3033102 -0.7094093 3.6920002
-1.2860867 -0.7096014 3.6930001
-1.2681667 -0.7094093 3.6920002
-1.2394167 -0.70306844 3.6590002
-1.2216681 -0.70287627 3.6580002
-1.2042582 -0.70287627 3.6580002
-1.1998264 -0.71056217 3.6980002
-1.1918169 -0.71632659 3.7280002
-1.1747037 -0.71671093 3.7300003
-1.1662563 -0.72247535 3.7600002
-1.148361 -0.72247535 3.7600002
-1.1433938 -0.73073769 3.8030002
-1.1315074 -0.7347728 3.8240001
-1.1133075 -0.7347728 3.8240001
-1.1077082 -0.7432273 3.8680003
-1.0892987 -0.7432273 3.8680003
-1.0772572 -0.74764669 3.8910003
-1.0647244 -0.75187391 3.9130001
-1.0583984 -0.76071274 3.9590001
-1.0458579 -0.76532429 3.9830003
-1.0328311 -0.76974362 4.006
-1.0137647 -0.76974362 4.006
-0.99469858 -0.76974362 4.006
-0.97563237 -0.76974362 4.006
-0.96229696 -0.77435523 4.0300002
-0.9375 -0.76974362 4.006
-0.91843379 -0.76974362 4.006
-0.89936757 -0.76974362 4.006
-0.8752473 -0.76532429 3.9830003
-0.85629052 -0.76532429 3.9830003
-0.8373338 -0.76532429 3.9830003
-0.81837702 -0.76532429 3.9830003
-0.80403656 -0.76974362 4.006
-0.78497034 -0.76974362 4.006
-0.76590413 -0.76974362 4.006
-0.75131232 -0.77435523 4.0300002
-0.73667365 -0.77915895 4.0550003
-0.72162002 -0.78377044 4.079
-0.70651025 -0.7885741 4.1040001
-0.69116241 -0.79337782 4.1290002
-0.67980504 -0.80317742 4.1800003
-0.66417336 -0.80836535 4.2070003
-0.64813143 -0.81336123 4.2330003
-0.63199037 -0.81854922 4.2600002
-0.61171526 -0.81854922 4.2600002
-0.5951888 -0.82373714 4.2870002
-0.57478517 -0.82373714 4.2870002
-0.55438155 -0.82373714 4.2870002
-0.53397799 -0.82373714 4.2870002
-0.51357436 -0.82373714 4.2870002
-0.49006477 -0.81854922 4.2600002
-0 -0 0
-0 -0 0
-0 -0 0
-0 -0 0
-0 -0 0
-0 -0 0
-0 -0 0
-0.14869325 -0.37122935 1.932
-0.13928145 -0.37065291 1.9290001
-0.12962843 -0.36930788 1.9220001
-0.12035547 -0.36892357 1.9200001
-0.11081193 -0.36757854 1.9130001
-0.10149451 -0.36680993 1.909
-0.092311978 -0.36642566 1.9070001
-0.083148487 -0.36604136 1.9050001
-0.074120693 -0.36623353 1.9060001
-0.065049253 -0.36623353 1.9060001
-0.056007188 -0.36642566 1.9070001
-0.047004819 -0.3670021 1.9100001
-0.037954044 -0.3673864 1.9120001
-0.028899321 -0.36796284 1.9150001
-0.019826375 -0.36873144 1.9190001
-0.010715353 -0.36950001 1.9230001
-0.001566256 -0.37026861 1.927
0.0076130233 -0.37065291 1.9290001
0.016750399 -0.36969218 1.9240001
0.025947902 -0.37026861 1.927
0.035137512 -0.37046075 1.9280001
0.045095127 -0.37699378 1.9620001
0.054627296 -0.37833881 1.9690001
0.064486124 -0.38122103 1.9840001
0.074338682 -0.38333467 1.9950001
0.083875731 -0.3835268 1.9960001
0.093328737 -0.38333467 1.9950001
0.10272068 -0.38295037 1.9930001
0.11198098 -0.38218176 1.9890001
0.12132534 -0.38179746 1.9870001
0.13051902 -0.38102886 1.983
0.137769 -0.3750723 1.9520001
0.14713471 -0.37526444 1.9530001
0.15586916 -0.37391943 1.9460001
0.16462182 -0.37276652 1.9400001
0.1733174 -0.37161365 1.9340001
0.18205021 -0.37065291 1.9290001
0.19113199 -0.37046075 1.9280001
0.19968477 -0.36930788 1.9220001
0.20709389 -0.36623353 1.9060001
0.21593851 -0.3658492 1.904
0.22334601 -0.36315915 1.8900001
0.23086612 -0.36085337 1.8780001
0.23865508 -0.35912403 1.8690001
0.24662328 -0.35777903 1.8620001
0.25493643 -0.35701042 1.858
0.26306957 -0.35604969 1.853
0.26983458 -0.35335961 1.8390001
0.27767819 -0.35220674 1.8330001
0.28530845 -0.3508617 1.8260001
0.29222807 -0.34874806 1.8150001
0.30020332 -0.34797949 1.8110001
0.30796999 -0.34701875 1.8060001
0.31621495 -0.34663445 1.8040001
0.32372063 -0.34548157 1.7980001
0.33116922 -0.34432867 1.7920001
0.33856073 -0.3431758 1.7860001
0.34589508 -0.3420229 1.7800001
0.35297325 -0.34067789 1.7730001
0.35978097 -0.33914068 1.7650001
0.36672112 -0.33779567 1.7580001
0.373808 -0.33664277 1.7520001
0.38105589 -0.33568203 1.7470001
0.3880333 -0.33452913 1.7410001
0.39495361 -0.33337626 1.7350001
0.40204918 -0.33241552 1.7300001
0.40886003 -0.33126262 1.7240001
0.41537184 -0.32991761 1.7170001
0.42206368 -0.32876471 1.7110001
0.42894983 -0.32780397 1.7060001
0.43425125 -0.32569033 1.6950001
0.44023082 -0.32415316 1.687
0.44639993 -0.32280812 1.6800001
0.45142055 -0.32069451 1.669
0.45771262 -0.31954163 1.6630001
0.46394756 -0.31838873 1.6570001
0.4706949 -0.31762016 1.6530001
0.47711465 -0.31665942 1.6480001
0.48407537 -0.31608295 1.6450001
0.49160555 -0.31589082 1.6440001
0.49973381 -0.31608295 1.6450001
0.50848871 -0.31665942 1.6480001
0.51758546 -0.31742799 1.6520001
0.52672023 -0.31819659 1.6560001
0.53653878 -0.31934947 1.6620001
0.54674202 -0.32069451 1.669
0.56000304 -0.32376885 1.6850001
0.57139373 -0.32569033 1.6950001
0.58253771 -0.32741967 1.7040001
0.59411395 -0.32934114 1.7140001
0.60332578 -0.32991761 1.7170001
0.61897665 -0.3339527 1.738
0.63807559 -0.33971715 1.7680001
0.64393061 -0.33837208 1.761
0.65860909 -0.34163862 1.7780001
0.67495012 -0.34567371 1.7990001
0.68541205 -0.34663445 1.8040001
0.69669086 -0.34797949 1.8110001
0.70336288 -0.34701875 1.8060001
0.71314108 -0.34759519 1.8090001
0.73611397 -0.35451248 1.845
0.74731749 -0.35566539 1.8510001
0.76715666 -0.36085337 1.8780001
0.77981406 -0.36258271 1.8870001
0.80091763 -0.368155 1.9160001
0.82737041 -0.37603304 1.9570001
0.83625698 -0.3758409 1.9560001
0.84816021 -0.37699378 1.9620001
0.87017268 -0.38256606 1.9910001
0.88185769 -0.3835268 1.9960001
0.89582324 -0.38544828 2.006
0.9171052 -0.3904441 2.0320001
0.93042511 -0.39198133 2.0400002
0.93829083 -0.3912127 2.036
0.96520865 -0.39832219 2.0730002
0.97366375 -0.39774576 2.0700002
1.0001452 -0.40447089 2.105
1.0274397 -0.41138822 2.141
1.0385989 -0.41177252 2.1430001
1.0659276 -0.41849771 2.1780002
1.0886477 -0.42330137 2.2030001
1.1190896 -0.43098727 2.243
1.1473941 -0.43771246 2.2780001
1.1841667 -0.44751197 2.329
1.2229643 -0.45788798 2.3830001
1.2545066 -0.46538174 2.4220002
1.2932155 -0.47537342 2.4740002
1.3197596 -0.48075354 2.5020001
1.3449738 -0.48555723 2.5270002
1.3612969 -0.4870944 2.5350001
1.4009917 -0.49689397 2.5860002
1.4154856 -0.49766254 2.5900002
1.4316715 -0.49900755 2.5970001
1.4434756 -0.49881545 2.5960002
1.4519055 -0.49747041 2.5890002
1.4653587 -0.49785468 2.5910001
1.4748387 -0.49689397 2.5860002
1.4819709 -0.4951646 2.5770001
1.4901772 -0.49381959 2.5700002
1.4959781 -0.49170592 2.559
1.5058 -0.49093735 2.5550001
1.51499 -0.48997664 2.5500002
1.5163466 -0.48651797 2.5320001
1.5271902 -0.48613369 2.5300002
1.5288888 -0.48286715 2.513
1.5249074 -0.47787133 2.4870002
1.5318006 -0.47633412 2.4790001
1.5242965 -0.47037756 2.4480002
1.5284183 -0.46807179 2.4360001
1.5374836 -0.46730322 2.4320002
1.5516063 -0.46807179 2.4360001
1.5599916 -0.46711108 2.4310002
1.5709152 -0.46691889 2.4300001
1.5811783 -0.46653461 2.4280002
1.5907661 -0.46595818 2.4250002
1.5930572 -0.46326807 2.411
1.6078597 -0.46422884 2.4160001
1.613326 -0.4624995 2.4070001
1.6234319 -0.46211523 2.4050002
1.6403166 -0.4636524 2.4130001
1.644271 -0.46153879 2.4020002
1.6508781 -0.46019375 2.3950002
1.6608887 -0.45980945 2.3930001
1.6694827 -0.45904085 2.3890002
1.6836672 -0.45980945 2.3930001
1.6936398 -0.45942512 2.391
1.6936098 -0.45635074 2.375
1.6948636 -0.4536607 2.3610001
1.7039326 -0.45308426 2.358
1.7129731 -0.45250779 2.355
1.7227174 -0.45212355 2.3530002
1.7324425 -0.45173922 2.3510001
1.7362154 -0.44981775 2.3410001
1.7466106 -0.44962561 2.3400002
1.7532407 -0.44847271 2.3340001
1.7635933 -0.4482806 2.3330002
1.771654 -0.44751197 2.329
1.7781461 -0.44635913 2.3230002
1.7853512 -0.44539836 2.3180001
1.7901837 -0.44386119 2.3100002
1.7988389 -0.44328475 2.3070002
1.8035427 -0.44174755 2.299
1.8129061 -0.44136328 2.2970002
1.8222505 -0.44097894 2.2950001
1.834771 -0.44136328 2.2970002
1.8457032 -0.44136328 2.2970002
1.8566357 -0.44136328 2.2970002
1.864316 -0.4405947 2.2930002
1.8744112 -0.44040251 2.2920001
1.8828522 -0.43982607 2.289
1.8912646 -0.4392496 2.286
1.8996482 -0.43867317 2.283
1.9080036 -0.43809676 2.2800002
1.9171718 -0.43771246 2.2780001
1.9263209 -0.43732813 2.276
1.9354513 -0.43694386 2.2740002
1.9522653 -0.4382889 2.2810001
1.9648426 -0.43867317 2.283
0 -0 0
0 -0 0
0 -0 0
0 -0 0
0 -0 0
0 -0 0
0 -0 0
0 -0 0
1.6235453 -0.34528941 1.7970001
1.6302814 -0.34490511 1.7950001
1.6379117 -0.34471294 1.794
1.6446145 -0.34432867 1.7920001
1.6494534 -0.3435601 1.7880001
0 -0 0
0 -0 0
0 -0 0
0 -0 0
0 -0 0
0 -0 0
0 -0 0
0 -0 0
0 -0 0
0 -0 0
0 -0 0
0 -0 0
0 -0 0
0 -0 0
-0 -0 0
-0 -0 0
-0 -0 0
-0 -0 0
-0 -0 0
-0 -0 0
-0 -0 0
-0 -0 0
-0 -0 0
-0 -0 0
-0 -0 0
-2.3719997 -0.45741484 2.4410002
-2.358448 -0.45704004 2.4390001
-2.3439531 -0.45647788 2.4360001
-2.3304443 -0.45610309 2.434
-2.3188598 -0.45610309 2.434
-2.2959003 -0.45385447 2.4220002
-2.2862594 -0.45422921 2.424
-2.2765994 -0.454604 2.4260001
-2.3192053 -0.46547255 2.4840002
-2.3064539 -0.46528512 2.483
-2.2983329 -0.46603471 2.4870002
-2.2947705 -0.46772116 2.4960001
-2.2892933 -0.46903288 2.503
-2.2764707 -0.46884552 2.5020001
-2.2654676 -0.46903288 2.503
-2.2481532 -0.46790859 2.4970002
-0 -0 0
-0 -0 0
-0 -0 0
-0 -0 0
-0 -0 0
-0 -0 0
-0 -0 0
-2.2341318 -0.48552307 2.5910001
-2.250098 -0.49170688 2.6240001
-2.282805 -0.50163847 2.677
-2.3022876 -0.5087592 2.7150002
-2.3230951 -0.51625472 2.7550001
-2.3376522 -0.52243859 2.7880001
-2.3502281 -0.52824759 2.8190002
-2.3649955 -0.53461879 2.8530002
-2.3761427 -0.54024047 2.8830001
-2.3976567 -0.54829812 2.9260001
-2.4179471 -0.55616844 2.9680002
-2.4402673 -0.56460094 3.0130002
-2.4589384 -0.57228386 3.0540001
-2.4684148 -0.57790548 3.0840001
-2.45135 -0.57734334 3.0810001
-2.4604125 -0.58296496 3.1110001
-2.4471781 -0.58333975 3.1130002
-2.4339249 -0.58371454 3.1150002
-2.4206524 -0.58408928 3.1170001
-2.406589 -0.58427668 3.118
-2.3932836 -0.58465147 3.1200001
-2.3791964 -0.58483887 3.1210001
-2.3666148 -0.585401 3.1240001
-2.346477 -0.58408928 3.1170001
-2.333138 -0.58446407 3.1190002
-2.3190367 -0.58465147 3.1200001
-2.3049259 -0.58483887 3.1210001
-2.2915392 -0.58521366 3.1230001
-2.2795916 -0.58596319 3.1270001
-2.261812 -0.58521366 3.1230001
-2.2541432 -0.58708751 3.1330001
-2.2420907 -0.58783704 3.1370001
-2.2406499 -0.59139746 3.1560001
-2.2362075 -0.5942083 3.1710002
-2.2246175 -0.59514523 3.1760001
-2.2101972 -0.59533262 3.177
-2.2137318 -0.6003921 3.2040002
-2.1998546 -0.60076684 3.2060001
-2.1839149 -0.6005795 3.2050002
-2.1673074 -0.60020471 3.2030001
-2.1762512 -0.6069507 3.2390001
-2.1655054 -0.60826236 3.2460001
-2.1520433 -0.60882455 3.2490001
-2.1760368 -0.62006789 3.3090003
-2.1615937 -0.62044263 3.3110001
-2.1477795 -0.62100482 3.3140001
-2.1410134 -0.6236282 3.3280001
-2.1321986 -0.62568951 3.3390002
-2.1182082 -0.6262517 3.3420002
-2.1262062 -0.63337243 3.3800001
-2.1113682 -0.63374722 3.3820002
-2.0971305 -0.63430941 3.3850002
-2.1056108 -0.64180493 3.4250002
-2.08992 -0.64199227 3.4260001
-2.073009 -0.64180493 3.4250002
-2.0549064 -0.64124274 3.4220002
-2.0374284 -0.64086795 3.4200001
-2.0099225 -0.63730758 3.4010003
-1.9902183 -0.63618326 3.3950002
-1.9746417 -0.63637066 3.3960001
-1.9584787 -0.63637066 3.3960001
-1.9463192 -0.63768238 3.4030001
-1.9306901 -0.63786972 3.404
-1.9161764 -0.63843191 3.4070001
-1.901634 -0.6389941 3.4100001
-1.8914864 -0.64105535 3.4210002
-1.8763008 -0.64143014 3.4230001
-1.8621827 -0.64217967 3.427
-1.8480268 -0.64292926 3.4310002
-1.8429085 -0.64686441 3.4520001
-1.8275373 -0.64723921 3.4540002
-1.8163416 -0.64911306 3.4640002
-1.8102469 -0.65286082 3.4840002
-1.7946947 -0.65323555 3.4860001
-1.7949356 -0.65941942 3.5190001
-1.7786927 -0.65960681 3.5200002
-1.7619395 -0.65960681 3.5200002
-1.7555981 -0.66354197 3.5410001
-1.7485656 -0.66728973 3.5610001
-1.7389115 -0.67010057 3.5760002
-1.7334481 -0.67459786 3.6000001
-1.7167909 -0.67478526 3.6010001
-1.6972923 -0.67384833 3.5960002
-1.6713001 -0.67028791 3.5770001
-1.6454885 -0.66672754 3.5580001
-1.6280969 -0.66654015 3.5570002
-1.5885199 -0.65717077 3.5070002
-1.5718286 -0.65717077 3.5070002
-1.5555807 -0.65735811 3.5080001
-1.5393234 -0.65754551 3.5090001
-1.5395454 -0.66485363 3.5480001
-1.5419713 -0.67328614 3.5930002
-1.5227487 -0.67234915 3.5880001
-1.5232968 -0.68021947 3.6300001
-1.50685 -0.68059427 3.6320002
-1.4899739 -0.68078166 3.6330001
-1.4828171 -0.68546641 3.6580002
-1.4662083 -0.68584114 3.6600001
-1.4483931 -0.68565375 3.6590002
-1.4438841 -0.69183761 3.6920002
-1.4406064 -0.69877094 3.7290001
-1.4220955 -0.69839621 3.7270002
-1.4167917 -0.70458001 3.7600002
-1.4067093 -0.70851511 3.7810001
-1.388714 -0.70851511 3.7810001
-1.3631055 -0.70458001 3.7600002
-1.3351927 -0.69933313 3.7320001
-1.3174305 -0.69933313 3.7320001
-1.2860867 -0.69202495 3.6930001
-1.2685101 -0.69202495 3.6930001
-1.2495787 -0.69127542 3.6890001
-1.2306854 -0.69052589 3.6850002
-1.2276323 -0.69877094 3.7290001
-1.2095599 -0.69858354 3.7280002
-1.2087606 -0.70851511 3.7810001
-1.1976939 -0.71263766 3.8030002
-1.1861074 -0.71657282 3.8240001
-1.1746266 -0.72069538 3.8460002
-1.1629364 -0.72481793 3.8680003
-1.144527 -0.72481793 3.8680003
-1.1328137 -0.72912788 3.8910003
-1.1205951 -0.73325038 3.9130001
-1.1084487 -0.73756033 3.9360001
-1.0897157 -0.73756033 3.9360001
-1.0772409 -0.74187022 3.9590001
-1.0648146 -0.74636757 3.9830003
-1.0518972 -0.75067747 4.006
-1.0390188 -0.75517482 4.0300002
-1.0198382 -0.75517482 4.0300002
-1.0006579 -0.75517482 4.0300002
-0.98756605 -0.75985956 4.0550003
-0.96826661 -0.75985956 4.0550003
-0.94311661 -0.75517482 4.0300002
-0.92393613 -0.75517482 4.0300002
-0.89420396 -0.74636757 3.9830003
-0.8752473 -0.74636757 3.9830003
-0.85113084 -0.74187022 3.9590001
-0.82261783 -0.73325038 3.9130001
-0.79474825 -0.72481793 3.8680003
-0.7719233 -0.72069538 3.8460002
-0.7536186 -0.72069538 3.8460002
-0.74391741 -0.72912788 3.8910003
-0.73807579 -0.74187022 3.9590001
-0.72777176 -0.75067747 4.006
-0.71737421 -0.75985956 4.0550003
-0.70651025 -0.76904154 4.1040001
-0.69116241 -0.77372628 4.1290002
-0.67573923 -0.77859837 4.1550002
-0.66417336 -0.7883426 4.2070003
-0.64813143 -0.79321468 4.2330003
-0.63199037 -0.79827416 4.2600002
-0.61171526 -0.79827416 4.2600002
-0.59144026 -0.79827416 4.2600002
-0.57478517 -0.80333364 4.2870002
-0.55438155 -0.80333364 4.2870002
-0.53397799 -0.80333364 4.2870002
-0.51357436 -0.80333364 4.2870002
-0.49006477 -0.79827416 4.2600002
-0 -0 0
-0 -0 0
-0 -0 0
-0 -0 0
-0 -0 0
-0 -0 0
-0 -0 0
-0.14884719 -0.36240897 1.9340001
-0.13942586 -0.3618468 1.9310001
-0.12962843 -0.36016029 1.9220001
-0.12035547 -0.35978553 1.9200001
-0.11081193 -0.35847381 1.9130001
-0.10149451 -0.35772425 1.909
-0.092311978 -0.35734949 1.9070001
-0.083148487 -0.35697469 1.9050001
-0.074081808 -0.35697469 1.9050001
-0.065049253 -0.35716209 1.9060001
-0.056007188 -0.35734949 1.9070001
-0.04698021 -0.35772425 1.909
-0.037934195 -0.35809904 1.9110001
-0.028899321 -0.35884857 1.9150001
-0.019816043 -0.35941076 1.9180001
-0.010709781 -0.36016029 1.9220001
-0.001566256 -0.36109725 1.927
0.0076248627 -0.36203417 1.932
0.016759103 -0.36072245 1.9250001
0.025974834 -0.36147204 1.9290001
0.035192188 -0.3618468 1.9310001
0.044451568 -0.36240897 1.9340001
0.054904733 -0.37084144 1.9790001
0.064518623 -0.37196577 1.9850001
0.074226893 -0.37327749 1.9920001
0.083749667 -0.37346488 1.9930001
0.09323518 -0.37346488 1.9930001
0.10256606 -0.37290272 1.9900001
0.11186839 -0.37234053 1.9870001
0.1207758 -0.37065405 1.978
0.12992664 -0.36990449 1.9740001
0.13812189 -0.36671889 1.9570001
0.1469087 -0.36540717 1.95
0.15570897 -0.36428285 1.9440001
0.16445211 -0.36315852 1.9380001
0.17322779 -0.36222157 1.9330001
0.18186146 -0.36109725 1.927
0.19083458 -0.36072245 1.9250001
0.19947697 -0.35978553 1.9200001
0.20796312 -0.35866117 1.914
0.21616535 -0.35716209 1.9060001
0.22334601 -0.35416389 1.8900001
0.23123491 -0.35247737 1.881
0.23852737 -0.35004133 1.868
0.24675572 -0.34910437 1.863
0.25507364 -0.34835485 1.8590001
0.26250172 -0.34648097 1.8490001
0.27071494 -0.34573141 1.845
0.2785871 -0.34460708 1.8390001
0.2851522 -0.34198362 1.825
0.29222807 -0.34010974 1.8150001
0.30003756 -0.33917281 1.8100001
0.30796999 -0.33842325 1.8060001
0.31603965 -0.33786109 1.8030001
0.32372063 -0.33692417 1.7980001
0.33135402 -0.33598721 1.7930001
0.33875027 -0.33486289 1.7870001
0.34608942 -0.33373857 1.7810001
0.35337141 -0.33261421 1.7750001
0.35998479 -0.33092773 1.766
0.36672112 -0.32942864 1.7580001
0.373808 -0.32830429 1.7520001
0.38083777 -0.32717997 1.7460001
0.3880333 -0.32624301 1.7410001
0.39495361 -0.32511869 1.7350001
0.40181679 -0.32399437 1.7290001
0.40862286 -0.32287002 1.723
0.4151299 -0.32155833 1.7160001
0.42181697 -0.32043397 1.71
0.42844698 -0.31930965 1.7040001
0.43425125 -0.31762317 1.6950001
0.44049177 -0.31631145 1.6880001
0.44666564 -0.31499973 1.6810001
0.45169103 -0.31293845 1.6700001
0.45798782 -0.3118141 1.664
0.46422759 -0.31068981 1.6580001
0.4706949 -0.30975285 1.6530001
0.47740415 -0.30900329 1.649
0.48436961 -0.30844113 1.646
0.49190459 -0.30825374 1.6450001
0.50003755 -0.30844113 1.646
0.50879723 -0.30900329 1.649
0.51789874 -0.30975285 1.6530001
0.52735639 -0.31068981 1.6580001
0.5375073 -0.3120015 1.6650001
0.54903519 -0.3140628 1.6760001
0.55967069 -0.31556189 1.6840001
0.57139373 -0.31762317 1.6950001
0.58287954 -0.31949705 1.705
0.59411395 -0.32118353 1.7140001
0.60297436 -0.32155833 1.7160001
0.62574339 -0.32924125 1.7570001
0.63735378 -0.33092773 1.766
0.64393061 -0.32999077 1.761
0.65897948 -0.33336377 1.779
0.6708231 -0.33505028 1.7880001
0.68275243 -0.33673677 1.7970001
0.69553679 -0.33879805 1.8080001
0.70686799 -0.34010974 1.8150001
0.71235257 -0.33861065 1.807
0.7237457 -0.33992237 1.8140001
0.74691379 -0.34666836 1.8500001
0.75612724 -0.34685573 1.8510001
0.77816111 -0.35285217 1.8830001
0.79966354 -0.35847381 1.9130001
0.82652479 -0.36634409 1.955
0.83711201 -0.36690629 1.9580001
0.84859246 -0.36784321 1.9630001
0.87104678 -0.37346488 1.9930001
0.8814159 -0.37383965 1.9950001
0.89582324 -0.37590092 2.006
0.9162026 -0.38039827 2.0300002
0.93042511 -0.38227215 2.0400002
0.93875176 -0.38170996 2.0370002
0.96288055 -0.387519 2.0680001
0.97413409 -0.38808116 2.0710001
0.99729449 -0.39332804 2.0990002
1.02648 -0.40082356 2.1390002
1.0395683 -0.40194792 2.1450002
1.0654382 -0.40794432 2.177
1.0891418 -0.41300377 2.204
1.1185907 -0.42012456 2.2420001
1.1484015 -0.42724532 2.2800002
1.1862005 -0.43717691 2.3330002
1.2198851 -0.44542196 2.3770001
1.2555424 -0.45422921 2.424
1.2932155 -0.46359867 2.4740002
1.3192322 -0.46865815 2.5010002
1.3518929 -0.47596627 2.5400002
1.3612969 -0.47502932 2.5350001
1.4020752 -0.48496088 2.5880001
1.4154856 -0.48533568 2.5900002
1.4294664 -0.48589787 2.5930002
1.4440316 -0.4866474 2.5970001
1.4541487 -0.48589787 2.5930002
1.4664899 -0.48589787 2.5930002
1.475409 -0.48477352 2.5870001
1.4831212 -0.48327443 2.5790002
1.4907569 -0.48177531 2.5710001
1.4953935 -0.47933924 2.5580001
1.5052108 -0.47858971 2.5540001
1.5078605 -0.47559148 2.5380001
1.5169455 -0.47465459 2.5330002
1.5265865 -0.473905 2.529
1.5276721 -0.47053203 2.5110002
1.5347176 -0.46903288 2.503
1.5268574 -0.46303648 2.4710002
1.5292778 -0.46022564 2.4560001
1.5284183 -0.45647788 2.4360001
1.5438055 -0.45760223 2.4420002
1.5503323 -0.45610309 2.434
1.5599916 -0.45554096 2.4310002
1.5696224 -0.45497879 2.4280002
1.574666 -0.45310491 2.4180002
1.5783023 -0.45085624 2.4060001
1.588432 -0.45048144 2.404
1.6071943 -0.45254275 2.4150002
1.6113151 -0.45048144 2.404
1.6214068 -0.45010671 2.4020002
1.6307997 -0.44954452 2.3990002
1.6408483 -0.44916973 2.3970001
1.6494994 -0.4484202 2.3930001
1.6581125 -0.44767064 2.3890002
1.668085 -0.44729584 2.3870001
1.6829637 -0.44823283 2.3920002
1.6929315 -0.44785804 2.3900001
1.6843398 -0.44261119 2.3620002
1.6941457 -0.44223639 2.3600001
1.7032101 -0.4416742 2.3570001
1.7122458 -0.44111204 2.3540001
1.720521 -0.44036251 2.3500001
1.7294949 -0.43980032 2.3470001
1.7347322 -0.43830124 2.3390002
1.743625 -0.43773907 2.3360002
1.750236 -0.43661472 2.3300002
1.7613255 -0.43661472 2.3300002
1.7701328 -0.43605256 2.3270001
1.7773806 -0.43511561 2.322
1.7845811 -0.43417868 2.3170002
1.7901837 -0.43286696 2.3100002
1.798059 -0.43211737 2.306
1.8027583 -0.43061829 2.2980001
1.8113276 -0.43005612 2.2950001
1.8222505 -0.43005612 2.2950001
1.8323747 -0.42986876 2.2940001
1.8432927 -0.42986876 2.2940001
1.8550191 -0.43005612 2.2950001
1.8626899 -0.4293066 2.2910001
1.8727758 -0.4291192 2.2900002
1.8820297 -0.42874441 2.2880001
1.8904372 -0.42818224 2.2850001
1.8988161 -0.42762008 2.2820001
1.9071666 -0.42705792 2.279
1.9154885 -0.42649573 2.276
1.9246283 -0.426121 2.2740002
1.9311955 -0.42518404 2.2690001
1.9496976 -0.42687052 2.2780001
0 -0 0
0 -0 0
0 -0 0
0 -0 0
0 -0 0
0 -0 0
0 -0 0
0 -0 0
0 -0 0
1.6208348 -0.33617458 1.794
1.6284651 -0.33598721 1.7930001
1.6351727 -0.33561245 1.7910001
1.642779 -0.33542505 1.7900001
1.6485308 -0.33486289 1.7870001
0 -0 0
0 -0 0
0 -0 0
0 -0 0
0 -0 0
0 -0 0
0 -0 0
0 -0 0
0 -0 0
0 -0 0
0 -0 0
0 -0 0
0 -0 0
0 -0 0
-0 -0 0
-0 -0 0
-0 -0 0
-0 -0 0
-0 -0 0
-0 -0 0
-0 -0 0
-0 -0 0
-0 -0 0
-0 -0 0
-0 -0 0
-0 -0 0
-2.3884242 -0.45109332 2.47
-2.3747439 -0.45072809 2.4680002
-2.3610828 -0.4503628 2.4660001
-2.3207653 -0.44488394 2.4360001
-2.3148589 -0.44597971 2.4420002
-2.3051229 -0.44634497 2.444
-2.3310275 -0.45365015 2.4840002
-2.3378782 -0.45730272 2.5040002
-2.3315344 -0.45839849 2.5100002
-2.3473122 -0.46387738 2.5400002
-2.3352232 -0.46387738 2.5400002
-2.3231344 -0.46387738 2.5400002
-2.3092258 -0.46351209 2.5380001
-2.2962413 -0.46332946 2.5370002
-2.2850671 -0.46351209 2.5380001
-0 -0 0
-0 -0 0
-0 -0 0
-0 -0 0
-0 -0 0
-0 -0 0
-0 -0 0
-2.2324076 -0.47282618 2.5890002
-2.2603881 -0.48140973 2.6360002
-2.2836578 -0.48908016 2.6780002
-2.3039837 -0.49620268 2.7170002
-2.3256247 -0.50369042 2.7580001
-2.3435216 -0.51044768 2.7950001
-2.3577313 -0.51647449 2.8280001
-2.3699691 -0.52213597 2.8590002
-2.3835604 -0.52816272 2.8920002
-2.3976567 -0.53437209 2.9260001
-2.4163175 -0.54167724 2.9660001
-2.4216392 -0.54606038 2.9900002
-2.4299529 -0.55117393 3.0180001
-2.4444029 -0.55774862 3.0540001
-2.4290724 -0.55756599 3.0530002
-2.4090056 -0.55628759 3.0460002
-2.4267392 -0.56377536 3.0870001
-2.4057961 -0.56231433 3.0790002
-2.4206524 -0.56925422 3.1170001
-2.406589 -0.56943685 3.118
-2.3925166 -0.56961948 3.1190002
-2.3784342 -0.56980211 3.1200001
-2.3650999 -0.57016736 3.1220002
-2.3442187 -0.56870633 3.1140001
-2.330894 -0.56907159 3.1160002
-2.3168068 -0.56925422 3.1170001
-2.3034489 -0.56961948 3.1190002
-2.2900717 -0.56998473 3.1210001
-2.2803206 -0.57126313 3.1280003
-2.264709 -0.57108051 3.1270001
-2.2541432 -0.57217628 3.1330001
-2.2420907 -0.57290679 3.1370001
-2.2321303 -0.57418519 3.1440001
-2.2362075 -0.57911617 3.1710002
-2.2232165 -0.57966411 3.1740003
-2.208806 -0.57984668 3.1750002
-2.2130406 -0.58496028 3.2030001
-2.1984825 -0.58514297 3.2040002
-2.1818705 -0.58477765 3.2020001
-2.1646008 -0.58422977 3.1990001
-2.1755793 -0.59135228 3.2380002
-2.158834 -0.59098703 3.2360001
-2.1527059 -0.59354389 3.2500002
-2.1372378 -0.59354389 3.2500002
-2.1426609 -0.59938794 3.2820001
-2.130281 -0.60030115 3.2870002
-2.1307201 -0.60486686 3.3120003
-2.1315598 -0.60961521 3.3380001
-2.1150391 -0.60943258 3.3370001
-2.1098509 -0.61253726 3.3540001
-2.0945122 -0.61271989 3.3550003
-2.0977499 -0.61838138 3.3860002
-2.0816345 -0.61838138 3.3860002
-2.0679593 -0.6191119 3.3900001
-2.0530355 -0.61947715 3.3920002
-2.054306 -0.62477338 3.4210002
-2.0362368 -0.6242255 3.4180002
-2.0134683 -0.62221658 3.4070001
-2.0007703 -0.62331235 3.4130001
-1.9856895 -0.62367761 3.4150002
-1.9705893 -0.62404287 3.4170001
-1.9491789 -0.62239921 3.4080002
-1.933526 -0.62258184 3.4090002
-1.9184262 -0.6229471 3.4110003
-1.9038647 -0.62349498 3.4140003
-1.8914864 -0.62477338 3.4210002
-1.8763008 -0.62513864 3.4230001
-1.8616394 -0.62568653 3.4260001
-1.8469495 -0.62623441 3.4290001
-1.845044 -0.63116539 3.4560001
-1.8291246 -0.63134807 3.4570003
-1.8158172 -0.63244379 3.4630001
-1.8123252 -0.6370095 3.4880002
-1.7962391 -0.63719213 3.4890001
-1.7949356 -0.64267099 3.5190001
-1.7791981 -0.64303631 3.5210001
-1.7629406 -0.64321887 3.5220001
-1.7536149 -0.64595836 3.5370002
-1.7495477 -0.65070671 3.5630002
-1.73648 -0.65216774 3.5710001
-1.7190027 -0.65198511 3.5700002
-1.7024883 -0.65216774 3.5710001
-1.6892685 -0.65362877 3.5790002
-1.6694312 -0.65253299 3.5730002
-1.6473385 -0.65052408 3.5620003
-1.6285546 -0.64979357 3.5580001
-1.6089029 -0.64869779 3.5520003
