# .PCD v0.7 - Point Cloud Data file format
VERSION 0.7
FIELDS x y z
SIZE 4 4 4
TYPE F F F
COUNT 1 1 1
WIDTH 1571
HEIGHT 1
VIEWPOINT 0 0 0 1 0 0 0
POINTS 1571
DATA ascii
-0.46222818 -0.017396225 0.83600003
-0.45879745 -0.017417034 0.83700001
-0.45535722 -0.017437844 0.83800006
-0.45136884 -0.017437844 0.83800006
-0.44791433 -0.017458653 0.83900005
-0.44445029 -0.017479461 0.84000003
-0.44097671 -0.01750027 0.84100002
-0.43749368 -0.01752108 0.84200007
-0.43400106 -0.017541887 0.84300005
-0.42998886 -0.017541887 0.84300005
-0.42648202 -0.017562697 0.84400004
-0.42296559 -0.017583504 0.84500003
-0.41943967 -0.017604314 0.84600002
-0.41590425 -0.017625123 0.84700006
-0.41235933 -0.017645933 0.84800005
-0.40880486 -0.01766674 0.84900004
-0.40476409 -0.01766674 0.84900004
-0.40119535 -0.01768755 0.85000002
-0.3976171 -0.017708357 0.85100001
-0.39402932 -0.017729169 0.85200006
-0.390432 -0.017749976 0.85300004
-0.38727814 -0.017791593 0.85500002
-0.38365704 -0.017812403 0.85600007
-0.38002643 -0.017833212 0.85700005
-0.37638631 -0.01785402 0.85800004
-0.37273663 -0.017874829 0.85900003
-0.36950663 -0.017916448 0.86100006
-0.36583319 -0.017937256 0.86200005
-0.36215019 -0.017958065 0.86300004
-0.35845771 -0.017978873 0.86400002
-0.35475573 -0.017999684 0.86500007
-0.35104418 -0.018020492 0.86600006
-0.34772372 -0.018062109 0.86800003
-0.34438425 -0.018103728 0.87000006
-0.34063464 -0.018124536 0.87100005
-0.33726183 -0.018166155 0.87300003
-0.33387002 -0.018207772 0.87500006
-0.33008233 -0.018228581 0.87600005
-0.32628512 -0.018249389 0.87700003
-0.32247838 -0.018270198 0.87800002
-0.3186622 -0.018291008 0.87900007
-0.31483644 -0.018311817 0.88000005
-0.31100115 -0.018332625 0.88100004
-0.30715635 -0.018353434 0.88200003
-0.30330205 -0.018374242 0.88300002
-0.29943821 -0.018395051 0.88400006
-0.29556486 -0.018415861 0.88500005
-0.291682 -0.01843667 0.88600004
-0.28778961 -0.018457478 0.88700002
-0.28388771 -0.018478287 0.88800007
-0.27997631 -0.018499097 0.88900006
-0.27605534 -0.018519904 0.89000005
-0.27212489 -0.018540714 0.89100003
-0.26848558 -0.018582333 0.89300007
-0.26453131 -0.01860314 0.89400005
-0.26056752 -0.01862395 0.89500004
-0.25688061 -0.018665567 0.89700001
-0.25317466 -0.018707186 0.89900005
-0.24917281 -0.018727994 0.90000004
-0.24543355 -0.018769613 0.90200007
-0.24167521 -0.01881123 0.90400004
-0.2376353 -0.018832037 0.90500003
-0.23384368 -0.018873656 0.90700006
-0.230033 -0.018915273 0.90900004
-0.22595499 -0.018936083 0.91000003
-0.22186749 -0.018956892 0.91100007
-0.21800922 -0.018998509 0.91300005
-0.2138979 -0.019019319 0.91400003
-0.20977706 -0.019040126 0.91500002
-0.20564671 -0.019060936 0.91600007
-0.20150684 -0.019081745 0.91700006
-0.19735745 -0.019102553 0.91800004
-0.19319852 -0.019123362 0.91900003
-0.18903008 -0.019144172 0.92000002
-0.18485215 -0.019164981 0.92100006
-0.18086062 -0.019206598 0.92300004
-0.17665887 -0.019227406 0.92400002
-0.17244762 -0.019248217 0.92500007
-0.16822682 -0.019269025 0.92600006
-0.16381961 -0.019269025 0.92600006
-0 -0 0
-0 -0 0
-0 -0 0
-0 -0 0
-0 -0 0
-0 -0 0
-0 -0 0
-0.37360698 -0.055996705 2.6910002
-0.36106753 -0.05603832 2.6930001
-0.34837976 -0.05605913 2.6940002
-0.33568245 -0.056079939 2.6950002
-0.32309541 -0.056121554 2.697
-0.31048939 -0.056163173 2.6990001
-0.29753345 -0.056142364 2.6980002
-0.28490359 -0.056183979 2.7
-0.27235547 -0.056246407 2.7030001
-0.25949076 -0.056246407 2.7030001
-0.24662608 -0.056246407 2.7030001
-0.23376139 -0.056246407 2.7030001
-0.22106016 -0.056288026 2.7050002
-0.20841685 -0.056350455 2.7080002
-0.19545613 -0.056329641 2.707
-0.18277475 -0.05639207 2.71
-0.16931258 -0.056204792 2.7010002
-0.15726838 -0.056496117 2.7150002
-0.14439973 -0.056516923 2.7160001
-0.13142477 -0.056496117 2.7150002
-0.11841566 -0.056454495 2.7130001
-0.10538671 -0.05639207 2.71
-0.092318065 -0.056288026 2.7050002
-0.079238281 -0.056142364 2.6980002
-0.066298947 -0.05605913 2.6940002
-0.053397685 -0.055975892 2.6900001
-0.040534504 -0.055892657 2.6860001
-0.027730063 -0.055851039 2.684
-0.014955802 -0.055851039 2.684
-0.0021823547 -0.055871848 2.6850002
0.010608505 -0.055934276 2.6880002
0.023427922 -0.055996705 2.6910002
0.03631629 -0.056121554 2.697
0.049553368 -0.056579351 2.7190001
0.062793009 -0.056849867 2.7320001
0.076378331 -0.057286851 2.753
0.090228558 -0.057765454 2.776
0.10437226 -0.05828568 2.8010001
0.11761932 -0.058244057 2.799
0.13112804 -0.058327299 2.8030002
0.14519024 -0.05861862 2.8170002
0.1590479 -0.058785092 2.825
0.17328702 -0.059055608 2.8380001
0.18857135 -0.059617449 2.8650002
0.20277168 -0.059783917 2.8730001
0.21900696 -0.06049142 2.9070001
0.23356344 -0.060678702 2.9160001
0.25041187 -0.061407011 2.9510002
0.26759344 -0.06213532 2.9860001
0.28397569 -0.062613927 3.0090001
0.29790023 -0.062530689 3.0050001
0.313449 -0.062780395 3.0170002
0.32715622 -0.062655546 3.0110002
0.34182703 -0.062717974 3.0140002
0.35179952 -0.061948042 2.9770002
0.36129686 -0.061157305 2.9390001
0.37413555 -0.060970023 2.9300001
0.38821313 -0.060990836 2.9310002
0.40243733 -0.061032452 2.9330001
0.41668063 -0.061074071 2.9350002
0.43123645 -0.061157305 2.9390001
0.4456788 -0.061219733 2.9420002
0.46014974 -0.061282158 2.9450002
0.47464925 -0.061344586 2.9480002
0.49083492 -0.061615102 2.9610002
0.50646228 -0.061802376 2.97
0.52112359 -0.061864804 2.973
0.53545338 -0.061885618 2.9740002
0.54831421 -0.061739955 2.9670002
0.55693805 -0.061136495 2.9380002
0.56975532 -0.061011642 2.9320002
0.57813555 -0.060428992 2.904
0.58563781 -0.059783917 2.8730001
0.59910303 -0.059763111 2.8720002
0 -0 0
0 -0 0
0 -0 0
0 -0 0
0 -0 0
0.56253833 -0.04935867 2.3720002
0.57140845 -0.049150582 2.3620002
0.58092338 -0.049004916 2.355
0.59112602 -0.048921682 2.3510001
0.60180312 -0.048880067 2.3490002
0.61272192 -0.048859254 2.348
0.62389702 -0.048859254 2.348
0 -0 0
0 -0 0
0 -0 0
0 -0 0
0 -0 0
0 -0 0
0 -0 0
0.94114 -0.064465918 3.098
0.95526761 -0.064424299 3.0960002
0.96937609 -0.06438268 3.0940001
0.97615004 -0.063862458 3.0690002
0.99043387 -0.063841648 3.0680001
1.0043806 -0.063800037 3.0660002
1.0189729 -0.063800037 3.0660002
1.0224408 -0.063113339 3.0330002
1.037218 -0.063134149 3.0340002
1.0520046 -0.063154958 3.0350001
1.0671523 -0.063196577 3.0370002
1.0965645 -0.064070553 3.0790002
1.1104969 -0.064028934 3.0770001
1.1357459 -0.064632386 3.1060002
1.1768285 -0.066109814 3.177
1.191574 -0.066089012 3.1760001
1.2142887 -0.066505186 3.1960001
1.2441183 -0.067295924 3.2340002
1.2606786 -0.067358352 3.2370002
1.2812097 -0.067628868 3.2500002
1.312238 -0.068440415 3.2890003
1.3282954 -0.068461224 3.2900002
1.3427284 -0.068398796 3.2870002
1.3587857 -0.068419605 3.2880001
1.3890653 -0.069147915 3.3230002
1.4057263 -0.069189534 3.325
1.4262543 -0.06941843 3.3360002
1.4434286 -0.069480859 3.3390002
1.4584461 -0.06943924 3.3370001
1.4747699 -0.069460049 3.3380001
1.4897639 -0.06941843 3.3360002
1.5060925 -0.06943924 3.3370001
1.5087481 -0.06883578 3.3080001
1.5231097 -0.068773352 3.3050001
1.5388395 -0.068773352 3.3050001
1.5545694 -0.068773352 3.3050001
1.5669733 -0.068627693 3.2980001
1.5836297 -0.068669312 3.3000002
1.6090286 -0.069085486 3.3200002
1.6258088 -0.069127105 3.3220003
1.657927 -0.069813803 3.3550003
1.6748925 -0.069855414 3.3570001
1.7105137 -0.070666961 3.3960001
1.7276937 -0.07070858 3.3980002
1.7443792 -0.07072939 3.3990002
1.7584847 -0.070646159 3.3950002
1.7762111 -0.07070858 3.3980002
1.7923834 -0.07070858 3.3980002
1.808556 -0.07070858 3.3980002
1.8220435 -0.070604533 3.3930001
1.838192 -0.070604533 3.3930001
1.8543408 -0.070604533 3.3930001
1.8704896 -0.070604533 3.3930001
1.886638 -0.070604533 3.3930001
1.927462 -0.071520127 3.4370003
1.9421235 -0.071457706 3.4340003
1.9590374 -0.071478508 3.4350002
1.9753861 -0.071478508 3.4350002
1.9934742 -0.071540937 3.4380002
2.0104215 -0.071561746 3.4390001
2.023253 -0.071436889 3.4330001
2.0401864 -0.071457706 3.4340003
2.0559311 -0.071436889 3.4330001
2.0770993 -0.071603365 3.4410002
2.094085 -0.071624175 3.4420002
2.1135325 -0.071728222 3.4470003
2.1225233 -0.071478508 3.4350002
2.1388719 -0.071478508 3.4350002
2.1558478 -0.071499318 3.4360001
2.1658792 -0.071291231 3.4260001
2.1643507 -0.07070858 3.3980002
2.185015 -0.070854247 3.4050002
2.1546752 -0.069356002 3.3330002
2.1711895 -0.069376811 3.3340001
0 -0 0
0 -0 0
0 -0 0
0 -0 0
0 -0 0
0 -0 0
0 -0 0
0 -0 0
0 -0 0
0 -0 0
1.8708196 -0.055330817 2.6590002
1.8728497 -0.055018682 2.6440001
1.8704585 -0.054581698 2.6230001
1.879353 -0.054477651 2.618
1.8715801 -0.053895004 2.5900002
1.8817247 -0.053832579 2.5870001
1.8933053 -0.05381177 2.5860002
1.9056132 -0.05381177 2.5860002
1.9446206 -0.054560892 2.6220002
1.9944204 -0.055601332 2.6720002
2.0364335 -0.056412879 2.7110002
2.0863771 -0.057432517 2.7600002
2.1398296 -0.058535386 2.8130002
2.1846013 -0.059388548 2.8540001
2.2467082 -0.060699508 2.9170001
2.2784154 -0.061178111 2.9400001
2.2931881 -0.061198924 2.9410002
2.30797 -0.061219733 2.9420002
2.3219721 -0.061219733 2.9420002
2.3343863 -0.061178111 2.9400001
2.3459826 -0.061115686 2.937
2.347908 -0.060803555 2.9220002
2.3698981 -0.061011642 2.9320002
2.3228741 -0.059450977 2.8570001
2.3143909 -0.058889136 2.8300002
2.2990704 -0.058160823 2.7950001
2.2858987 -0.057494942 2.7630002
2.2832391 -0.057099573 2.7440002
2.2762146 -0.056600157 2.72
2.274853 -0.056246407 2.7030001
2.2834859 -0.056142364 2.6980002
2.2946246 -0.056100745 2.6960001
2.3014648 -0.055955086 2.6890001
2.354713 -0.056933101 2.7360001
2.4049468 -0.057827882 2.779
2.4816952 -0.059346933 2.8520002
2.5495136 -0.060637079 2.914
2.6311181 -0.062239368 2.9910002
2.7054954 -0.063654371 3.0590003
2.7707384 -0.064840481 3.1160002
2.8535094 -0.066421948 3.1920002
2.8704991 -0.066463575 3.1940002
2.911901 -0.067067027 3.223
2.9308739 -0.067150265 3.2270002
2.9480584 -0.067191876 3.2290001
2.9643443 -0.067212693 3.2300003
0 -0 0
0 -0 0
0 -0 0
0 -0 0
0 -0 0
0 -0 0
0 -0 0
0 -0 0
0 -0 0
0 -0 0
0 -0 0
0 -0 0
0 -0 0
0 -0 0
0 -0 0
-0 -0 0
-0 -0 0
-0 -0 0
-0 -0 0
-0 -0 0
-0 -0 0
-0 -0 0
-0 -0 0
-2.2362731 -0.036400199 2.2680001
-2.2195911 -0.0363039 2.2620001
-2.2117548 -0.03635205 2.2650001
-2.2029183 -0.03638415 2.2670002
-2.1950295 -0.036432296 2.2700002
-2.1871121 -0.036480442 2.273
-2.180124 -0.036544643 2.2770002
-2.1711922 -0.03657674 2.279
-2.1612935 -0.036592793 2.2800002
-2.1504421 -0.036592793 2.2800002
-2.1292679 -0.036416247 2.2690001
-2.1175351 -0.036400199 2.2680001
-2.1123142 -0.036496494 2.2740002
-2.1005671 -0.036480442 2.273
-2.0879102 -0.036448345 2.2710001
-2.0697846 -0.036319949 2.263
-2.0644732 -0.036416247 2.2690001
-2.0527689 -0.036400199 2.2680001
-2.0428751 -0.036416247 2.2690001
-2.0293891 -0.036368098 2.266
-2.0194952 -0.03638415 2.2670002
-2.0104778 -0.036416247 2.2690001
-2.0023224 -0.036464393 2.2720001
-1.9941387 -0.036512543 2.2750001
-1.988542 -0.036608841 2.2810001
-1.9794196 -0.036640938 2.283
-1.9711406 -0.036689088 2.286
-1.9619758 -0.036721185 2.2880001
-1.9527918 -0.036753286 2.2900002
-1.9385006 -0.036689088 2.286
-1.9293072 -0.036721185 2.2880001
-1.9200946 -0.036753286 2.2900002
-1.9100292 -0.036769334 2.2910001
-1.904928 -0.036881682 2.2980001
-1.8948151 -0.03689773 2.299
-1.8846927 -0.036913782 2.3000002
-1.8753753 -0.036945879 2.302
-1.866039 -0.03697798 2.3040001
-1.8558785 -0.036994025 2.3050001
-1.8465089 -0.037026126 2.3070002
-1.8363246 -0.037042174 2.3080001
-1.8269216 -0.037074275 2.3100002
-1.8167133 -0.037090324 2.3110001
-1.8057145 -0.037090324 2.3110001
-1.7939389 -0.037074275 2.3100002
-1.7821726 -0.037058223 2.309
-1.7704161 -0.037042174 2.3080001
-1.7594314 -0.037042174 2.3080001
-0 -0 0
-0 -0 0
-0 -0 0
-0 -0 0
-0 -0 0
-0 -0 0
-0 -0 0
-0 -0 0
-0 -0 0
-0 -0 0
-0 -0 0
-0 -0 0
-0 -0 0
-0.56907189 -0.013128466 0.81800002
-0.56586963 -0.013144516 0.81900007
-0.56197166 -0.013144516 0.81900007
-0.5580737 -0.013144516 0.81900007
-0.55417573 -0.013144516 0.81900007
-0.55027777 -0.013144516 0.81900007
-0.54637986 -0.013144516 0.81900007
-0.5424819 -0.013144516 0.81900007
-0.53858387 -0.013144516 0.81900007
-0.53468597 -0.013144516 0.81900007
-0.530788 -0.013144516 0.81900007
-0.52689004 -0.013144516 0.81900007
-0.52299207 -0.013144516 0.81900007
-0.51972795 -0.013160565 0.82000005
-0.51582521 -0.013160565 0.82000005
-0.51254678 -0.013176614 0.82100004
-0.50925887 -0.013192664 0.82200003
-0.50596136 -0.013208713 0.82300001
-0.50265443 -0.013224764 0.82400006
-0.49933791 -0.013240812 0.82500005
-0.49601188 -0.013256862 0.82600003
-0.49267638 -0.013272911 0.82700002
-0.48933133 -0.013288962 0.82800007
-0.48597673 -0.01330501 0.82900006
-0.48261267 -0.01332106 0.83000004
-0.47923902 -0.013337109 0.83100003
-0.47585589 -0.013353159 0.83200002
-0.47246325 -0.013369208 0.83300006
-0.46906111 -0.013385258 0.83400005
-0.4656494 -0.013401307 0.83500004
-0.46222818 -0.013417357 0.83600003
-0.45879745 -0.013433405 0.83700001
-0.45535722 -0.013449456 0.83800006
-0.45136884 -0.013449456 0.83800006
-0.44791433 -0.013465505 0.83900005
-0.44445029 -0.013481555 0.84000003
-0.44097671 -0.013497604 0.84100002
-0.43749368 -0.013513654 0.84200007
-0.43400106 -0.013529703 0.84300005
-0.43049893 -0.013545753 0.84400004
-0.42698732 -0.013561802 0.84500003
-0.42296559 -0.013561802 0.84500003
-0.41943967 -0.013577851 0.84600002
-0.41590425 -0.013593901 0.84700006
-0.41235933 -0.01360995 0.84800005
-0.40880486 -0.013626 0.84900004
-0.40476409 -0.013626 0.84900004
-0.40119535 -0.013642049 0.85000002
-0.3976171 -0.013658098 0.85100001
-0.39402932 -0.013674148 0.85200006
-0.390432 -0.013690198 0.85300004
-0.38727814 -0.013722296 0.85500002
-0.38365704 -0.013738346 0.85600007
-0.38002643 -0.013754396 0.85700005
-0.37638631 -0.013770445 0.85800004
-0.37273663 -0.013786494 0.85900003
-0.36950663 -0.013818594 0.86100006
-0.36583319 -0.013834643 0.86200005
-0.36215019 -0.013850693 0.86300004
-0.35845771 -0.013866741 0.86400002
-0.35475573 -0.013882792 0.86500007
-0.35144952 -0.013914891 0.86700004
-0.34772372 -0.013930939 0.86800003
-0.34438425 -0.013963039 0.87000006
-0.34102571 -0.013995137 0.87200004
-0.33726183 -0.014011187 0.87300003
-0.33387002 -0.014043286 0.87500006
-0.33008233 -0.014059336 0.87600005
-0.32628512 -0.014075384 0.87700003
-0.32247838 -0.014091434 0.87800002
-0.3186622 -0.014107484 0.87900007
-0.31483644 -0.014123534 0.88000005
-0.31100115 -0.014139582 0.88100004
-0.30715635 -0.014155632 0.88200003
-0.30330205 -0.014171681 0.88300002
-0.29943821 -0.014187732 0.88400006
-0.29556486 -0.01420378 0.88500005
-0.291682 -0.01421983 0.88600004
-0.28778961 -0.014235879 0.88700002
-0.28388771 -0.01425193 0.88800007
-0.27997631 -0.014267979 0.88900006
-0.27605534 -0.014284028 0.89000005
-0.27212489 -0.014300077 0.89100003
-0.26848558 -0.014332177 0.89300007
-0.26453131 -0.014348226 0.89400005
-0.26056752 -0.014364275 0.89500004
-0.25688061 -0.014396374 0.89700001
-0.25317466 -0.014428473 0.89900005
-0.24917281 -0.014444523 0.90000004
-0.24543355 -0.014476622 0.90200007
-0.24167521 -0.01450872 0.90400004
-0.2376353 -0.01452477 0.90500003
-0.23384368 -0.014556869 0.90700006
-0.22977994 -0.014572918 0.90800005
-0.22595499 -0.014605017 0.91000003
-0.22211103 -0.014637116 0.91200006
-0.21800922 -0.014653166 0.91300005
-0.2138979 -0.014669215 0.91400003
-0.20977706 -0.014685265 0.91500002
-0.20564671 -0.014701314 0.91600007
-0.20150684 -0.014717364 0.91700006
-0.19735745 -0.014733413 0.91800004
-0.19319852 -0.014749463 0.91900003
-0.18903008 -0.014765511 0.92000002
-0.18485215 -0.014781562 0.92100006
-0.18086062 -0.014813661 0.92300004
-0.17665887 -0.014829709 0.92400002
-0.17244762 -0.01484576 0.92500007
-0.16822682 -0.014861809 0.92600006
-0.16381961 -0.014861809 0.92600006
-0 -0 0
-0 -0 0
-0 -0 0
-0 -0 0
-0 -0 0
-0 -0 0
-0.38770685 -0.043333568 2.7
-0.3737458 -0.043205172 2.6920002
-0.36133569 -0.043253321 2.6950002
-0.34850904 -0.043253321 2.6950002
-0.33568245 -0.043253321 2.6950002
-0.32309541 -0.043285418 2.697
-0.31048939 -0.043317519 2.6990001
-0.29764372 -0.043317519 2.6990001
-0.28490359 -0.043333568 2.7
-0.27235547 -0.043381717 2.7030001
-0.25949076 -0.043381717 2.7030001
-0.24662608 -0.043381717 2.7030001
-0.23384789 -0.043397769 2.7040002
-0.22114187 -0.043429863 2.7060001
-0.20833987 -0.043445911 2.707
-0.19545613 -0.043445911 2.707
-0.18277475 -0.043494061 2.71
-0.16993943 -0.043510113 2.7110002
-0.15715252 -0.04354221 2.7130001
-0.1442934 -0.043558262 2.7140002
-0.13137637 -0.043558262 2.7140002
-0.11832838 -0.043510113 2.7110002
-0.10530894 -0.043461964 2.7080002
-0.092249803 -0.043381717 2.7030001
-0.079208903 -0.043285418 2.697
-0.066249728 -0.043205172 2.6920002
-0.053357989 -0.043140974 2.6880002
-0.040519416 -0.043092828 2.6850002
-0.027719731 -0.043060727 2.6830001
-0.01495023 -0.043060727 2.6830001
-0.0021823547 -0.043092828 2.6850002
0.010604559 -0.043124925 2.687
0.023427922 -0.043189123 2.6910002
0.036329757 -0.043301471 2.6980002
0.049279999 -0.043397769 2.7040002
0.062494211 -0.043638509 2.7190001
0.075712487 -0.043799002 2.7290001
0.090163559 -0.044521231 2.7740002
0.10373879 -0.044681724 2.7840002
0.11749326 -0.044874318 2.7960002
0.1309877 -0.044938516 2.8000002
0.14513871 -0.045195308 2.8160002
0.15899161 -0.045323703 2.8240001
0.17249323 -0.045339752 2.825
0.18758406 -0.045740988 2.8500001
0.20284225 -0.046126176 2.8740001
0.21832894 -0.046511363 2.8980002
0.23324306 -0.046736058 2.9120002
0.24964815 -0.04721754 2.9420002
0.26633883 -0.047699023 2.9720001
0.28038943 -0.047682974 2.9710002
0.29859418 -0.048341002 3.0120001
0.31334507 -0.0484052 3.016
0.3273735 -0.048357055 3.0130002
0.34171364 -0.048357055 3.0130002
0.35156319 -0.047747172 2.9750001
0.35896116 -0.04686445 2.9200001
0.37349713 -0.0469447 2.9250002
0.38781577 -0.04699285 2.9280002
0.40188849 -0.047008898 2.9290001
0.41625473 -0.047057044 2.9320002
0.42874205 -0.046896551 2.9220002
0.44083115 -0.046703957 2.9100001
0.45483732 -0.046720009 2.9110003
0.46901399 -0.046752106 2.9130001
0.48320967 -0.046784203 2.9150002
0.49878863 -0.0469447 2.9250002
0.51253462 -0.046928648 2.924
0.5262711 -0.046912599 2.9230001
0.53999805 -0.046896551 2.9220002
0.54708076 -0.046318769 2.8860002
0.56256533 -0.046463218 2.8950002
0.56539428 -0.045580495 2.8400002
0.57401884 -0.045195308 2.8160002
0.58387506 -0.044922464 2.799
0.58610195 -0.044087894 2.7470002
0 -0 0
0.55363286 -0.039866883 2.4840002
0.55384558 -0.039048359 2.4330001
0.56077725 -0.038727369 2.4130001
0.5630126 -0.038101442 2.3740001
0.5718922 -0.037940945 2.3640001
0.57969004 -0.037716255 2.3500001
0.5906232 -0.037700206 2.3490002
0.60154688 -0.037684154 2.348
0.61246103 -0.037668105 2.3470001
0.6236313 -0.037668105 2.3470001
0 -0 0
0 -0 0
0 -0 0
0 -0 0
0 -0 0
0 -0 0
0 -0 0
0.93020356 -0.049143475 3.062
0.94508553 -0.049159527 3.0630002
0.95935023 -0.049143475 3.062
0.97583193 -0.049239773 3.0680001
0.99011105 -0.049223725 3.0670002
1.0040529 -0.049191624 3.0650001
1.0186405 -0.049191624 3.0650001
1.0318798 -0.049127426 3.0610001
1.0464482 -0.049127426 3.0610001
1.0617101 -0.049159527 3.0630002
1.0776937 -0.049223725 3.0670002
1.0958523 -0.049384218 3.0770001
1.1274593 -0.050138541 3.1240001
1.1514693 -0.05053978 3.1490002
1.1783102 -0.051053364 3.1810002
1.1896981 -0.050892871 3.1710002
1.2260668 -0.051791638 3.2270002
1.2441183 -0.051903985 3.2340002
1.2614574 -0.051984232 3.2390001
1.2804213 -0.052128676 3.2480001
1.3010665 -0.052337322 3.2610002
1.3190094 -0.052433617 3.2670002
1.3406858 -0.052674357 3.2820001
1.3571328 -0.052706458 3.2840002
1.3698366 -0.052594114 3.2770002
1.4061491 -0.053380538 3.3260002
1.4245441 -0.053476833 3.3320003
1.4421318 -0.053541031 3.3360002
1.4575721 -0.053524982 3.3350003
1.4738865 -0.053541031 3.3360002
1.4893174 -0.053524982 3.3350003
1.50519 -0.053524982 3.3350003
1.5092041 -0.053107698 3.3090003
1.5240314 -0.053075597 3.3070002
1.5393052 -0.053059548 3.3060002
1.5550398 -0.053059548 3.3060002
1.5683987 -0.052979298 3.3010001
1.5860291 -0.053043496 3.3050001
1.6075747 -0.05323609 3.3170002
1.62483 -0.053284239 3.3200002
1.657927 -0.053845972 3.3550003
1.6748925 -0.053878069 3.3570001
1.6913737 -0.053894121 3.3580003
1.7068474 -0.053878069 3.3570001
1.7448924 -0.054568198 3.4000001
1.7579666 -0.054471899 3.3940001
1.7762111 -0.0545361 3.3980002
1.7923834 -0.0545361 3.3980002
1.8080237 -0.054520048 3.3970001
1.8236545 -0.054504 3.3960001
1.8376503 -0.054439802 3.3920002
1.8537943 -0.054439802 3.3920002
1.8875793 -0.054953385 3.4240003
1.9049873 -0.054985482 3.4260001
1.9229755 -0.055033632 3.4290001
1.9409924 -0.055081781 3.4320002
1.9590374 -0.05512993 3.4350002
1.9776864 -0.055194125 3.4390001
1.9946339 -0.055210173 3.4400001
2.0110061 -0.055210173 3.4400001
2.0244319 -0.05512993 3.4350002
2.0407805 -0.05512993 3.4350002
2.05653 -0.055113882 3.4340003
2.0770993 -0.055226225 3.4410002
2.0934765 -0.055226225 3.4410002
2.1116931 -0.055274375 3.4440002
2.1274664 -0.055258323 3.4430001
2.1376266 -0.05509783 3.4330001
2.154593 -0.055113882 3.4340003
2.1475458 -0.054520048 3.3970001
2.1388726 -0.053894121 3.3580003
2.1529295 -0.053845972 3.3550003
2.1475639 -0.05331634 3.3220003
2.1353719 -0.052626207 3.279
0 -0 0
0 -0 0
0 -0 0
0 -0 0
0 -0 0
0 -0 0
0 -0 0
0 -0 0
0 -0 0
0 -0 0
1.8729303 -0.042723689 2.6620002
1.8742665 -0.042466898 2.6460001
1.8911383 -0.042563196 2.6520002
1.8693031 -0.041792817 2.6040001
1.8715801 -0.041568127 2.5900002
1.8809974 -0.041503929 2.5860002
1.8918409 -0.041471828 2.5840001
1.9034024 -0.041455779 2.5830002
1.9231126 -0.041616276 2.5930002
1.9742672 -0.042450849 2.6450002
2.0146494 -0.043044679 2.6820002
2.0848651 -0.044264436 2.7580001
2.1421118 -0.045195308 2.8160002
2.183836 -0.045789137 2.8530002
2.2366953 -0.046607658 2.904
2.2776406 -0.047169391 2.9390001
2.2924082 -0.04718544 2.9400001
2.30797 -0.04721754 2.9420002
2.3219721 -0.04721754 2.9420002
2.3351803 -0.047201492 2.9410002
2.3467815 -0.047153343 2.9380002
2.359961 -0.04713729 2.937
2.3715148 -0.047089145 2.9340003
2.3521438 -0.046431117 2.8930001
2.326658 -0.045660738 2.845
2.3114088 -0.045099009 2.8100002
2.2892079 -0.044408884 2.7670002
2.2857354 -0.044087894 2.7470002
2.2778883 -0.043686654 2.7220001
2.2740116 -0.043365669 2.7020001
2.2817931 -0.04326937 2.6960001
2.2929225 -0.043237273 2.6940002
2.3014648 -0.043157022 2.6890001
2.3288937 -0.043429863 2.7060001
2.4040816 -0.044585425 2.7780001
2.4503694 -0.045195308 2.8160002
2.5276408 -0.046366919 2.8890002
2.5968106 -0.047378033 2.9520001
2.6577356 -0.048228655 3.0050001
2.7325029 -0.04932002 3.0730002
2.798084 -0.050234839 3.1300001
2.8399425 -0.050716322 3.1600001
2.8911211 -0.051358301 3.2
2.909076 -0.051406451 3.2030001
2.9270594 -0.0514546 3.2060001
2.9459891 -0.051518794 3.21
2.9769497 -0.051791638 3.2270002
0 -0 0
0 -0 0
0 -0 0
0 -0 0
0 -0 0
0 -0 0
0 -0 0
0 -0 0
0 -0 0
0 -0 0
0 -0 0
0 -0 0
0 -0 0
0 -0 0
-0 -0 0
-0 -0 0
-0 -0 0
-0 -0 0
-0 -0 0
-0 -0 0
-0 -0 0
-0 -0 0
-2.2362731 -0.025605852 2.2680001
-2.2176285 -0.02551553 2.26
-2.2098017 -0.025549401 2.263
-2.2019465 -0.025583271 2.266
-2.1940625 -0.025617141 2.2690001
-2.1871121 -0.025662301 2.273
-2.180124 -0.025707463 2.2770002
-2.1711922 -0.025730042 2.279
-2.1612935 -0.025741333 2.2800002
-2.1504421 -0.025741333 2.2800002
-2.1283295 -0.025605852 2.2680001
-2.1166015 -0.025594562 2.2670002
-2.1058121 -0.025594562 2.2670002
-2.093174 -0.025571981 2.2650001
-2.0805552 -0.025549401 2.263
-2.0688701 -0.025538111 2.2620001
-2.0571945 -0.025526822 2.2610002
-2.0464334 -0.025526822 2.2610002
-2.037473 -0.025549401 2.263
-2.0275981 -0.025560692 2.2640002
-2.0186043 -0.025583271 2.266
-2.0095918 -0.025605852 2.2680001
-2.0014412 -0.025639722 2.2710001
-1.9932623 -0.025673592 2.2740002
-1.9859266 -0.025718752 2.2780001
-1.9785527 -0.025763912 2.2820001
-1.9711406 -0.025809072 2.286
-1.9628333 -0.025842942 2.289
-1.9527918 -0.025854234 2.2900002
-1.9393487 -0.025820363 2.2870002
-1.9293072 -0.025831653 2.2880001
-1.9200946 -0.025854234 2.2900002
-1.9133641 -0.025910683 2.2950001
-1.9040991 -0.025933264 2.2970002
-1.8948151 -0.025955843 2.299
-1.8846927 -0.025967134 2.3000002
-1.8753753 -0.025989713 2.302
-1.866039 -0.026012294 2.3040001
-1.8566835 -0.026034873 2.306
-1.8473091 -0.026057454 2.3080001
-1.8371201 -0.026068743 2.309
-1.8269216 -0.026080035 2.3100002
-1.8174994 -0.026102614 2.312
-1.8064958 -0.026102614 2.312
-1.7947154 -0.026091324 2.3110001
-1.7837163 -0.026091324 2.3110001
-1.7719504 -0.026080035 2.3100002
-1.7601937 -0.026068743 2.309
-0 -0 0
-0 -0 0
-0 -0 0
-0 -0 0
-0 -0 0
-0 -0 0
-0 -0 0
-0 -0 0
-0 -0 0
-0 -0 0
-0 -0 0
-0 -0 0
-0 -0 0
-0.56907189 -0.0092352675 0.81800002
-0.56586963 -0.009246558 0.81900007
-0.56197166 -0.009246558 0.81900007
-0.5580737 -0.009246558 0.81900007
-0.55417573 -0.009246558 0.81900007
-0.55027777 -0.009246558 0.81900007
-0.54637986 -0.009246558 0.81900007
-0.5424819 -0.009246558 0.81900007
-0.53858387 -0.009246558 0.81900007
-0.53468597 -0.009246558 0.81900007
-0.530788 -0.009246558 0.81900007
-0.52689004 -0.009246558 0.81900007
-0.52299207 -0.009246558 0.81900007
-0.51972795 -0.0092578474 0.82000005
-0.51582521 -0.0092578474 0.82000005
-0.51254678 -0.0092691379 0.82100004
-0.50925887 -0.0092804274 0.82200003
-0.50596136 -0.0092917178 0.82300001
-0.50265443 -0.0093030082 0.82400006
-0.49933791 -0.0093142977 0.82500005
-0.49601188 -0.0093255881 0.82600003
-0.49267638 -0.0093368776 0.82700002
-0.48933133 -0.009348168 0.82800007
-0.48597673 -0.0093594585 0.82900006
-0.48261267 -0.009370748 0.83000004
-0.47923902 -0.0093820384 0.83100003
-0.47585589 -0.0093933279 0.83200002
-0.47246325 -0.0094046183 0.83300006
-0.46906111 -0.0094159087 0.83400005
-0.4656494 -0.0094271982 0.83500004
-0.46222818 -0.0094384886 0.83600003
-0.45879745 -0.0094497781 0.83700001
-0.45535722 -0.0094610685 0.83800006
-0.45190746 -0.009472359 0.83900005
-0.44844821 -0.0094836485 0.84000003
-0.44497937 -0.0094949389 0.84100002
-0.44097671 -0.0094949389 0.84100002
-0.43749368 -0.0095062293 0.84200007
-0.43400106 -0.0095175188 0.84300005
-0.43049893 -0.0095288092 0.84400004
-0.42698732 -0.0095400987 0.84500003
-0.42296559 -0.0095400987 0.84500003
-0.41943967 -0.0095513891 0.84600002
-0.41590425 -0.0095626796 0.84700006
-0.41235933 -0.0095739691 0.84800005
-0.40880486 -0.0095852595 0.84900004
-0.40524083 -0.009596549 0.85000002
-0.40166733 -0.0096078394 0.85100001
-0.39808434 -0.0096191298 0.85200006
-0.39449179 -0.0096304193 0.85300004
-0.39088973 -0.0096417097 0.85400003
-0.38727814 -0.0096529992 0.85500002
-0.38365704 -0.0096642897 0.85600007
-0.38002643 -0.0096755801 0.85700005
-0.37638631 -0.0096868696 0.85800004
-0.37273663 -0.00969816 0.85900003
-0.36950663 -0.0097207399 0.86100006
-0.36583319 -0.0097320303 0.86200005
-0.36215019 -0.0097433198 0.86300004
-0.35845771 -0.0097546102 0.86400002
-0.35475573 -0.0097659007 0.86500007
-0.35144952 -0.0097884806 0.86700004
-0.34812433 -0.0098110605 0.86900002
-0.34438425 -0.0098223509 0.87000006
-0.34102571 -0.0098449308 0.87200004
-0.33726183 -0.0098562203 0.87300003
-0.33387002 -0.0098788012 0.87500006
-0.33008233 -0.0098900907 0.87600005
-0.32628512 -0.0099013811 0.87700003
-0.32247838 -0.0099126706 0.87800002
-0.3186622 -0.009923961 0.87900007
-0.31483644 -0.0099352514 0.88000005
-0.31100115 -0.0099465409 0.88100004
-0.30715635 -0.0099578314 0.88200003
-0.30330205 -0.0099691208 0.88300002
-0.29943821 -0.0099804113 0.88400006
-0.29556486 -0.0099917017 0.88500005
-0.291682 -0.010002991 0.88600004
-0.28778961 -0.010014282 0.88700002
-0.28388771 -0.010025572 0.88800007
-0.27997631 -0.010036862 0.88900006
-0.27605534 -0.010048152 0.89000005
-0.27212489 -0.010059441 0.89100003
-0.26848558 -0.010082022 0.89300007
-0.26453131 -0.010093312 0.89400005
-0.26056752 -0.010104602 0.89500004
-0.25688061 -0.010127182 0.89700001
-0.25317466 -0.010149762 0.89900005
-0.24917281 -0.010161052 0.90000004
-0.24543355 -0.010183632 0.90200007
-0.24167521 -0.010206212 0.90400004
-0.2376353 -0.010217503 0.90500003
-0.23384368 -0.010240083 0.90700006
-0.22977994 -0.010251373 0.90800005
-0.22595499 -0.010273953 0.91000003
-0.22211103 -0.010296533 0.91200006
-0.21800922 -0.010307823 0.91300005
-0.2138979 -0.010319113 0.91400003
-0.20977706 -0.010330403 0.91500002
-0.20564671 -0.010341694 0.91600007
-0.20150684 -0.010352983 0.91700006
-0.19735745 -0.010364274 0.91800004
-0.19319852 -0.010375563 0.91900003
-0.18903008 -0.010386853 0.92000002
-0.18485215 -0.010398144 0.92100006
-0.18086062 -0.010420724 0.92300004
-0.17665887 -0.010432013 0.92400002
-0.17244762 -0.010443304 0.92500007
-0.16822682 -0.010454594 0.92600006
-0.16381961 -0.010454594 0.92600006
-0 -0 0
-0 -0 0
-0 -0 0
-0 -0 0
-0 -0 0
-0 -0 0
-0.3867017 -0.030404126 2.6930001
-0.37416232 -0.030426707 2.6950002
-0.36146975 -0.030437997 2.6960001
-0.34876767 -0.030449286 2.697
-0.33593154 -0.030449286 2.697
-0.32333502 -0.030471867 2.6990001
-0.31060442 -0.030483156 2.7
-0.29775399 -0.030483156 2.7
-0.28511465 -0.030505737 2.7020001
-0.27235547 -0.030517027 2.7030001
-0.25958678 -0.030528318 2.7040002
-0.24680857 -0.030539608 2.7050002
-0.23402083 -0.030550897 2.7060001
-0.22122359 -0.030562187 2.707
-0.20833987 -0.030562187 2.707
-0.19545613 -0.030562187 2.707
-0.18284221 -0.030607348 2.7110002
-0.1700021 -0.030618638 2.7120001
-0.15715252 -0.030629927 2.7130001
-0.14424023 -0.030629927 2.7130001
-0.13132796 -0.030629927 2.7130001
-0.11832838 -0.030607348 2.7110002
-0.10519228 -0.030539608 2.7050002
-0.09221568 -0.030505737 2.7020001
-0.079179533 -0.030437997 2.6960001
-0.066200502 -0.030370256 2.6900001
-0.053338133 -0.030336386 2.687
-0.04048923 -0.030291226 2.6830001
-0.0277094 -0.030279936 2.6820002
-0.014944659 -0.030279936 2.6820002
-0.0021815419 -0.030302515 2.684
0.010604559 -0.030336386 2.687
0.023427922 -0.030381547 2.6910002
0.036370154 -0.030494448 2.7010002
0.049334671 -0.030562187 2.707
0.062356304 -0.030629927 2.7130001
0.076073155 -0.030957339 2.7420001
0.089058459 -0.03093476 2.7400002
0.10381331 -0.031454101 2.786
0.11740921 -0.031544421 2.7940001
0.13084736 -0.031578291 2.7970002
0.14446868 -0.031646032 2.8030002
0.15910421 -0.031905703 2.8260002
0.17261536 -0.031916995 2.8270001
0.18679422 -0.032041185 2.8380001
0.20291284 -0.03245892 2.8750002
0.21689752 -0.032504078 2.8790002
0.23300277 -0.032842778 2.9090002
0.24981788 -0.03323793 2.9440002
0.26320225 -0.033158898 2.937
0.27944568 -0.033429861 2.9610002
0.29690889 -0.033813722 2.9950001
0.31074774 -0.033768564 2.9910002
0.3253091 -0.033802435 2.9940002
0.33933195 -0.033779852 2.9920001
0.34896338 -0.033339541 2.9530001
0.35859236 -0.032933097 2.9170001
0.37273097 -0.03295568 2.9190001
0.38490185 -0.032808907 2.9060001
0.39763498 -0.032718588 2.8980002
0.41114384 -0.032696009 2.8960001
0.42448691 -0.032662138 2.8930001
0.43825585 -0.032662138 2.8930001
0.45233735 -0.032684717 2.8950002
0.46434477 -0.032560527 2.8840001
0.47757357 -0.032526657 2.881
0.49077386 -0.032492787 2.878
0.50377035 -0.032447625 2.8740001
0.5167287 -0.032402467 2.8700001
0.52983379 -0.032368597 2.8670001
0.53836083 -0.032063764 2.8400002
0.54721385 -0.031792805 2.8160002
0.55603743 -0.031533133 2.7930002
0.56668049 -0.031386364 2.7800002
0.57115042 -0.030912179 2.7380002
0.57009983 -0.030167036 2.6720002
0.55795133 -0.028879968 2.5580001
0.5565303 -0.028191276 2.4970002
0.55361795 -0.027457422 2.4320002
0.56333363 -0.0273671 2.424
0.56372404 -0.026836468 2.3770001
0.57261801 -0.026723567 2.3670001
0.5794434 -0.026520347 2.3490002
0.59037173 -0.026509056 2.348
0.60154688 -0.026509056 2.348
0.61272192 -0.026509056 2.348
0.62389702 -0.026509056 2.348
0.63615406 -0.026554216 2.352
0 -0 0
0 -0 0
0 -0 0
0 -0 0
0 -0 0
0 -0 0
0.91045725 -0.033836305 2.9970002
0.92533833 -0.033858884 2.9990001
0.94023842 -0.033881463 3.0010002
0.95483947 -0.033892754 3.0020001
0.97074145 -0.033949204 3.0070002
0.98669082 -0.034005653 3.0120001
1.0023556 -0.034050815 3.016
1.0173842 -0.034073394 3.0180001
1.0461065 -0.034547579 3.0600002
1.0613633 -0.034570158 3.062
1.076991 -0.034604028 3.0650001
1.1047559 -0.03502176 3.1020002
1.1285421 -0.03530401 3.1270001
1.1522007 -0.035574973 3.1510003
1.1797919 -0.035958834 3.1850002
1.1975769 -0.036037866 3.1920002
1.2249271 -0.036399148 3.2240002
1.2437335 -0.036500756 3.233
1.2610681 -0.036557209 3.2380002
1.2788445 -0.036624949 3.2440002
1.291491 -0.036545917 3.2370002
1.3077047 -0.036568496 3.2390001
1.3239375 -0.036591079 3.2410002
1.3410157 -0.036636237 3.2450001
1.3694186 -0.036986232 3.2760003
1.3820509 -0.0369072 3.2690001
1.4228339 -0.037573311 3.3280001
1.4404025 -0.037618473 3.3320003
1.4558238 -0.037607182 3.3310001
1.4721192 -0.037618473 3.3320003
1.4879776 -0.037618473 3.3320003
1.49842 -0.037482992 3.3200002
1.5133089 -0.037460413 3.3180001
1.5244923 -0.03734751 3.3080001
1.5397707 -0.037336223 3.3070002
1.55551 -0.037336223 3.3070002
1.5721998 -0.037358802 3.3090003
1.5874687 -0.03734751 3.3080001
1.6070901 -0.037437834 3.3160002
1.6243405 -0.037471704 3.3190002
1.6416196 -0.037505575 3.3220003
1.658927 -0.037539441 3.325
1.6762631 -0.037573311 3.3280001
1.706339 -0.037889436 3.3560002
1.7192322 -0.037821695 3.3500001
1.7367302 -0.037855566 3.3530002
1.7547795 -0.037900724 3.3570001
1.7923834 -0.038363617 3.3980002
1.8037658 -0.038262006 3.3890002
1.8236545 -0.038341038 3.3960001
1.8371086 -0.038284589 3.3910003
1.8707364 -0.038645867 3.4230001
1.8881305 -0.03866845 3.4250002
1.9055433 -0.038691029 3.427
1.9235363 -0.038724899 3.4300001
1.9415579 -0.03875877 3.4330001
1.9601781 -0.038803931 3.4370003
1.9805619 -0.03888296 3.4440002
1.9957936 -0.038860381 3.4420002
2.0121753 -0.038860381 3.4420002
2.0261998 -0.038815219 3.4380002
2.0419688 -0.038803931 3.4370003
2.0577278 -0.03879264 3.4360001
2.0764956 -0.038837798 3.4400001
2.0922596 -0.03882651 3.4390001
2.1092403 -0.038837798 3.4400001
2.124995 -0.03882651 3.4390001
2.1432307 -0.038860381 3.4420002
2.1307507 -0.038341038 3.3960001
2.1469138 -0.038341038 3.3960001
2.1426942 -0.037979756 3.3640001
2.1522877 -0.037866853 3.3540001
2.1191194 -0.037008811 3.2780001
2.1353719 -0.037020098 3.279
0 -0 0
0 -0 0
0 -0 0
0 -0 0
0 -0 0
0 -0 0
0 -0 0
0 -0 0
0 -0 0
0 -0 0
1.8891126 -0.030313807 2.6850002
1.8983499 -0.030257355 2.6800001
1.8925644 -0.029963814 2.654
1.8707389 -0.029421892 2.6060002
1.8694122 -0.02920738 2.5870001
1.8788152 -0.029162221 2.5830002
1.8896445 -0.02913964 2.5810001
1.9011917 -0.02912835 2.5800002
1.9127295 -0.029117061 2.5790002
1.959339 -0.029636404 2.6250002
2.0026305 -0.030099295 2.6660001
2.0561395 -0.030708957 2.72
2.1223338 -0.031499263 2.7900002
2.1807742 -0.032165375 2.8490002
2.2351551 -0.032763749 2.9020002
2.2768657 -0.03317019 2.9380002
2.290849 -0.03317019 2.9380002
2.306401 -0.033192769 2.9400001
2.321183 -0.03320406 2.9410002
2.3351803 -0.03320406 2.9410002
2.3467815 -0.03317019 2.9380002
2.359961 -0.033158898 2.937
2.3723228 -0.033136319 2.9350002
2.3529568 -0.032673426 2.8940001
2.3299294 -0.032165375 2.8490002
2.3146992 -0.031770222 2.8140001
2.2925172 -0.03128475 2.7710001
2.2882316 -0.031047661 2.7500002
2.2795622 -0.030754119 2.7240002
2.274853 -0.030517027 2.7030001
2.2809467 -0.030426707 2.6950002
2.2920711 -0.030404126 2.6930001
2.3134472 -0.030517027 2.7030001
2.3297544 -0.030562187 2.707
2.3729272 -0.030957339 2.7420001
2.4303558 -0.031533133 2.7930002
2.4847698 -0.032063764 2.8400002
2.5413909 -0.032616977 2.8890002
2.5993626 -0.033181481 2.9390001
2.6720374 -0.033926625 3.0050001
2.7346132 -0.034536287 3.0590003
2.7878172 -0.03502176 3.1020002
2.8414302 -0.035507232 3.1450002
2.8872786 -0.035891093 3.1790001
2.9014957 -0.035879806 3.1780002
2.9478247 -0.036263667 3.2120001
2.9677246 -0.036320116 3.2170002
2.9895265 -0.036399148 3.2240002
0 -0 0
0 -0 0
0 -0 0
0 -0 0
0 -0 0
0 -0 0
0 -0 0
0 -0 0
0 -0 0
0 -0 0
0 -0 0
0 -0 0
0 -0 0
-0 -0 0
-0 -0 0
-0 -0 0
-0 -0 0
-0 -0 0
-0 -0 0
-0 -0 0
-0 -0 0
-2.235287 -0.014804977 2.2670002
-2.2166474 -0.014752732 2.2590001
-2.2078488 -0.014765793 2.2610002
-2.2000031 -0.014785386 2.2640002
-2.1930957 -0.014811507 2.2680001
-2.1861501 -0.01483763 2.2720001
-2.1791666 -0.014863752 2.276
-2.1711922 -0.014883344 2.279
-2.1612935 -0.014889875 2.2800002
-2.1391239 -0.014811507 2.2680001
-2.1348984 -0.014857222 2.2750001
-2.123137 -0.014850692 2.2740002
-2.104883 -0.014798446 2.266
-2.0922499 -0.014785386 2.2640002
-2.0805552 -0.014778853 2.263
-2.0679555 -0.014765793 2.2610002
-2.0562844 -0.014759261 2.26
-2.0455282 -0.014759261 2.26
-2.0356724 -0.014765793 2.2610002
-2.0267024 -0.014778853 2.263
-2.0177135 -0.014791915 2.2650001
-2.0095918 -0.014811507 2.2680001
-2.0014412 -0.0148311 2.2710001
-1.9923856 -0.01484416 2.273
-1.984183 -0.014863752 2.276
-1.9776857 -0.014896406 2.2810001
-1.9711406 -0.014929058 2.286
-1.9611183 -0.01493559 2.2870002
-1.9485279 -0.014922529 2.2850001
-1.9393487 -0.01493559 2.2870002
-1.9293072 -0.014942121 2.2880001
-1.9200946 -0.014955183 2.2900002
-1.9125303 -0.014981304 2.2940001
-1.90327 -0.014994365 2.296
-1.8931668 -0.015000897 2.2970002
-1.8838731 -0.015013956 2.299
-1.8753753 -0.015033549 2.302
-1.866039 -0.01504661 2.3040001
-1.8566835 -0.015059671 2.306
-1.8465089 -0.015066203 2.3070002
-1.8371201 -0.015079264 2.309
-1.8269216 -0.015085795 2.3100002
-1.8174994 -0.015098856 2.312
-1.8072772 -0.015105387 2.3130002
-1.7954919 -0.015098856 2.312
-1.7844881 -0.015098856 2.312
-1.7734845 -0.015098856 2.312
-1.7624806 -0.015098856 2.312
-0 -0 0
-0 -0 0
-0 -0 0
-0 -0 0
-0 -0 0
-0 -0 0
-0 -0 0
-0 -0 0
-0 -0 0
-0 -0 0
-0 -0 0
-0 -0 0
-0 -0 0
-0.56907189 -0.0053420691 0.81800002
-0.56586963 -0.0053486 0.81900007
-0.56197166 -0.0053486 0.81900007
-0.5580737 -0.0053486 0.81900007
-0.55417573 -0.0053486 0.81900007
-0.55027777 -0.0053486 0.81900007
-0.54637986 -0.0053486 0.81900007
-0.5424819 -0.0053486 0.81900007
-0.53858387 -0.0053486 0.81900007
-0.53468597 -0.0053486 0.81900007
-0.530788 -0.0053486 0.81900007
-0.52689004 -0.0053486 0.81900007
-0.52299207 -0.0053486 0.81900007
-0.51972795 -0.0053551304 0.82000005
-0.51582521 -0.0053551304 0.82000005
-0.51254678 -0.0053616613 0.82100004
-0.50925887 -0.0053681917 0.82200003
-0.50596136 -0.0053747222 0.82300001
-0.50265443 -0.0053812531 0.82400006
-0.49933791 -0.005387784 0.82500005
-0.49601188 -0.0053943144 0.82600003
-0.49267638 -0.0054008448 0.82700002
-0.48933133 -0.0054073757 0.82800007
-0.48597673 -0.0054139066 0.82900006
-0.48261267 -0.0054204371 0.83000004
-0.47923902 -0.0054269675 0.83100003
-0.47585589 -0.005433498 0.83200002
-0.47246325 -0.0054400293 0.83300006
-0.46906111 -0.0054465597 0.83400005
-0.4656494 -0.0054530902 0.83500004
-0.46222818 -0.0054596206 0.83600003
-0.45879745 -0.0054661515 0.83700001
-0.45535722 -0.0054726824 0.83800006
-0.45190746 -0.0054792129 0.83900005
-0.44844821 -0.0054857433 0.84000003
-0.44497937 -0.0054922742 0.84100002
-0.44097671 -0.0054922742 0.84100002
-0.43749368 -0.0054988051 0.84200007
-0.43400106 -0.0055053355 0.84300005
-0.43049893 -0.005511866 0.84400004
-0.42698732 -0.0055183969 0.84500003
-0.42296559 -0.0055183969 0.84500003
-0.41943967 -0.0055249273 0.84600002
-0.41590425 -0.0055314582 0.84700006
-0.41235933 -0.0055379886 0.84800005
-0.40880486 -0.0055445195 0.84900004
-0.40524083 -0.00555105 0.85000002
-0.40166733 -0.0055575804 0.85100001
-0.39808434 -0.0055641113 0.85200006
-0.39449179 -0.0055706417 0.85300004
-0.39088973 -0.0055771726 0.85400003
-0.38727814 -0.0055837031 0.85500002
-0.38365704 -0.005590234 0.85600007
-0.38002643 -0.0055967644 0.85700005
-0.37638631 -0.0056032953 0.85800004
-0.37273663 -0.0056098257 0.85900003
-0.36950663 -0.0056228871 0.86100006
-0.36583319 -0.005629418 0.86200005
-0.36215019 -0.0056359484 0.86300004
-0.35845771 -0.0056424788 0.86400002
-0.35516584 -0.0056555406 0.86600006
-0.35144952 -0.0056620711 0.86700004
-0.34812433 -0.0056751319 0.86900002
-0.34438425 -0.0056816628 0.87000006
-0.34102571 -0.0056947242 0.87200004
-0.33726183 -0.0057012546 0.87300003
-0.33387002 -0.0057143164 0.87500006
-0.33008233 -0.0057208468 0.87600005
-0.32628512 -0.0057273773 0.87700003
-0.32247838 -0.0057339082 0.87800002
-0.3186622 -0.0057404391 0.87900007
-0.31483644 -0.0057469695 0.88000005
-0.31100115 -0.0057534999 0.88100004
-0.30715635 -0.0057600304 0.88200003
-0.30330205 -0.0057665613 0.88300002
-0.29943821 -0.0057730922 0.88400006
-0.29556486 -0.0057796226 0.88500005
-0.291682 -0.005786153 0.88600004
-0.28778961 -0.0057926839 0.88700002
-0.28388771 -0.0057992148 0.88800007
-0.27997631 -0.0058057453 0.88900006
-0.27605534 -0.0058122757 0.89000005
-0.27212489 -0.0058188066 0.89100003
-0.26848558 -0.0058318679 0.89300007
-0.26453131 -0.0058383984 0.89400005
-0.26056752 -0.0058449293 0.89500004
-0.25688061 -0.0058579901 0.89700001
-0.25317466 -0.0058710519 0.89900005
-0.24917281 -0.0058775824 0.90000004
-0.24543355 -0.0058906437 0.90200007
-0.24167521 -0.005903705 0.90400004
-0.2376353 -0.0059102355 0.90500003
-0.23384368 -0.0059232968 0.90700006
-0.22977994 -0.0059298277 0.90800005
-0.22595499 -0.0059428886 0.91000003
-0.22211103 -0.0059559504 0.91200006
-0.21824799 -0.0059690112 0.91400003
-0.21413192 -0.0059755417 0.91500002
-0.21000634 -0.005982073 0.91600007
-0.20587121 -0.0059886035 0.91700006
-0.20172659 -0.0059951339 0.91800004
-0.19757243 -0.0060016643 0.91900003
-0.19319852 -0.0060016643 0.91900003
-0.18903008 -0.0060081952 0.92000002
-0.18485215 -0.0060147261 0.92100006
-0.18086062 -0.006027787 0.92300004
-0.17665887 -0.0060343179 0.92400002
-0.17244762 -0.0060408488 0.92500007
-0.16822682 -0.0060473792 0.92600006
-0.1636427 -0.0060408488 0.92500007
-0 -0 0
-0 -0 0
-0 -0 0
-0 -0 0
-0 -0 0
-0 -0 0
-0.3867017 -0.017587032 2.6930001
-0.37485647 -0.017632747 2.7
-0.36173791 -0.017619686 2.6980002
-0.34889701 -0.017619686 2.6980002
-0.33605611 -0.017619686 2.6980002
-0.32345483 -0.017632747 2.7
-0.31071946 -0.017639278 2.7010002
-0.29698205 -0.017587032 2.6930001
-0.28448153 -0.017606623 2.6960001
-0.27265775 -0.01767193 2.7060001
-0.25987476 -0.01767846 2.707
-0.24699105 -0.01767846 2.707
-0.2341938 -0.017684992 2.7080002
-0.22138704 -0.017691523 2.7090001
-0.20857076 -0.017698053 2.71
-0.19560054 -0.017691523 2.7090001
-0.18290964 -0.017711114 2.7120001
-0.1700021 -0.017711114 2.7120001
-0.15715252 -0.017717645 2.7130001
-0.1442934 -0.017724177 2.7140002
-0.13118273 -0.017698053 2.71
-0.11824108 -0.017691523 2.7090001
-0.10523117 -0.01767193 2.7060001
-0.092181556 -0.017639278 2.7010002
-0.0791208 -0.017593564 2.6940002
-0.0661759 -0.01756091 2.6890001
-0.053298436 -0.017534787 2.6850002
-0.040474143 -0.017515196 2.6820002
-0.02769907 -0.017508665 2.6810002
-0.014939087 -0.017508665 2.6810002
-0.0021807291 -0.017521726 2.6830001
0.010600612 -0.017541317 2.6860001
0.023436628 -0.017580502 2.6920002
0.036397081 -0.017652338 2.7030001
0.049352899 -0.017684992 2.7080002
0.062287353 -0.017698053 2.71
0.076100893 -0.017913563 2.743
0.089123458 -0.017907035 2.7420001
0.10381331 -0.018194381 2.786
0.11732517 -0.018233566 2.7920001
0.1307538 -0.018253159 2.7950001
0.14436559 -0.018292341 2.8010001
0.15921681 -0.018468669 2.8280001
0.17279854 -0.018481731 2.8300002
0.18672842 -0.018527446 2.8370001
0.20298341 -0.018782141 2.8760002
0.21697284 -0.018808262 2.8800001
0.23292267 -0.018991122 2.9080002
0.24676304 -0.018991122 2.9080002
0.26176843 -0.019076021 2.9210002
0.2788794 -0.019298062 2.9550002
0.29334003 -0.019324183 2.9590001
0.31064385 -0.019526634 2.9900002
0.32389659 -0.019467859 2.9810002
0.33604297 -0.019350307 2.9630001
0.34896338 -0.019285001 2.9530001
0.35822356 -0.019030305 2.914
0.37158173 -0.019004183 2.9100001
0.38503429 -0.01898459 2.9070001
0.39832103 -0.018958468 2.9030001
0.41085988 -0.018899692 2.8940001
0.42404673 -0.01887357 2.8900001
0.43704396 -0.018840916 2.8850002
0.45077488 -0.018840916 2.8850002
0.45661643 -0.018520916 2.8360002
0.47011411 -0.018520916 2.8360002
0.48327073 -0.018507853 2.8340001
0.49623308 -0.018488262 2.8310001
0.5093469 -0.018475201 2.8290002
0.51819116 -0.018311935 2.8040001
0.52679741 -0.018148668 2.779
0.53982955 -0.018142138 2.7780001
0.54847223 -0.017991932 2.7550001
0.55322695 -0.017724177 2.7140002
0.55946875 -0.017515196 2.6820002
0.56092536 -0.017169071 2.6290002
0.55555201 -0.016633559 2.5470002
0.55519301 -0.016267842 2.4910002
0.5547561 -0.015915187 2.437
0.56379843 -0.01584335 2.4260001
0.56609565 -0.015588654 2.3870001
0.57285988 -0.015464571 2.368
0.58117008 -0.015386205 2.3560002
0.5906232 -0.01534049 2.3490002
0.60154688 -0.015333959 2.348
0.61298293 -0.01534049 2.3490002
0.62442845 -0.015347021 2.3500001
0.63642454 -0.015366613 2.3530002
0 -0 0
0 -0 0
0 -0 0
0 -0 0
0 -0 0
0 -0 0
0.8910147 -0.019154387 2.9330001
0.9049741 -0.019154387 2.9330001
0.91956007 -0.019167449 2.9350002
0.93384695 -0.01917398 2.9360001
0.94652939 -0.019147858 2.9320002
0.96048391 -0.019147858 2.9320002
0.98706758 -0.01939602 2.97
1.0015403 -0.019402552 2.9710002
1.0273038 -0.019624595 3.0050001
1.0509647 -0.019800922 3.0320001
1.0766395 -0.020009903 3.0640001
1.1047559 -0.020258067 3.1020002
1.1292639 -0.020434394 3.1290002
1.1522007 -0.02057807 3.1510003
1.1801623 -0.02080664 3.1860001
1.1972017 -0.020839294 3.1910002
1.2234073 -0.021028684 3.2200003
1.2348855 -0.020963376 3.21
1.2497737 -0.020956846 3.2090001
1.2650467 -0.020956846 3.2090001
1.2795218 -0.020943785 3.2070003
1.2951889 -0.020950316 3.2080002
1.3108656 -0.020956846 3.2090001
1.3290313 -0.021002561 3.2160001
1.3472637 -0.021048274 3.223
1.3833193 -0.021368276 3.2720001
1.4211239 -0.02170787 3.3240001
1.438241 -0.021727463 3.3270001
1.4518903 -0.021694809 3.3220003
1.4659338 -0.021668686 3.3180001
1.4821723 -0.021675218 3.3190002
1.4988712 -0.021688279 3.3210001
1.5133089 -0.021668686 3.3180001
1.5249531 -0.021609912 3.3090003
1.540702 -0.021609912 3.3090003
1.5559804 -0.021603379 3.3080001
1.572675 -0.021616442 3.3100002
1.5898682 -0.021636033 3.3130002
1.6056361 -0.021636033 3.3130002
1.6228724 -0.021655627 3.3160002
1.6401371 -0.021675218 3.3190002
1.6579292 -0.02170134 3.3230002
1.6752558 -0.021720933 3.3260002
1.6931194 -0.021747055 3.3300002
1.7176926 -0.021858076 3.3470001
1.7356942 -0.021884197 3.3510001
1.7542567 -0.021916851 3.3560002
1.7918559 -0.022184607 3.3970001
1.8032336 -0.022125833 3.3880002
1.8204324 -0.022138894 3.3900001
1.8533614 -0.022341345 3.4210002
1.8707364 -0.022354404 3.4230001
1.8881305 -0.022367466 3.4250002
1.9060994 -0.022387058 3.4280002
1.9240972 -0.022406651 3.4310002
1.9421235 -0.022426242 3.4340003
1.9607484 -0.022452366 3.4380002
1.9886129 -0.022582978 3.4580002
2.0050709 -0.022582978 3.4580002
2.0197752 -0.022563385 3.4550002
2.0397551 -0.022602569 3.4610002
2.0520687 -0.022556854 3.4540002
2.0667109 -0.022537263 3.4510002
2.0764956 -0.022465425 3.4400001
2.0916514 -0.022452366 3.4380002
2.1061747 -0.022432772 3.4350002
2.1021323 -0.022217261 3.4020002
2.1233051 -0.022269506 3.4100001
2.1376524 -0.022249913 3.4070001
2.1273158 -0.021975627 3.3650002
2.1420574 -0.021962566 3.3630002
2.1336782 -0.021714401 3.325
2.1191194 -0.021407461 3.2780001
2.1353719 -0.021413991 3.279
2.154258 -0.021446645 3.2840002
0 -0 0
0 -0 0
0 -0 0
0 -0 0
0 -0 0
0 -0 0
0 -0 0
0 -0 0
0 -0 0
1.9123307 -0.017750299 2.7180002
1.900475 -0.017521726 2.6830001
1.8939908 -0.017345399 2.6560001
1.8815067 -0.017116826 2.6210001
1.8766384 -0.01696009 2.5970001
1.8759058 -0.016842538 2.5790002
1.886716 -0.016829478 2.5770001
1.8982441 -0.016822947 2.5760002
1.9097627 -0.016816415 2.575
1.9362 -0.016940499 2.5940001
1.9763393 -0.017182132 2.631
2.0334616 -0.017567441 2.6900001
2.101795 -0.018044179 2.7630002
2.1608725 -0.018436017 2.8230002
2.2166698 -0.018795202 2.878
2.2691159 -0.019121734 2.9280002
2.2885096 -0.019167449 2.9350002
2.3040476 -0.01918051 2.937
2.3196044 -0.019193571 2.9390001
2.3343863 -0.019200101 2.9400001
2.3467815 -0.019187041 2.9380002
2.359961 -0.01918051 2.937
2.3723228 -0.019167449 2.9350002
2.3521438 -0.018893162 2.8930001
2.3323827 -0.018625407 2.8520002
2.3229246 -0.018442547 2.8240001
2.2941718 -0.018109486 2.7730002
2.2973845 -0.018031117 2.7610002
2.2787251 -0.017782951 2.723
2.2782195 -0.01767846 2.707
2.2809467 -0.017600095 2.6950002
2.2920711 -0.017587032 2.6930001
2.3151591 -0.017665401 2.7050002
2.330615 -0.017684992 2.7080002
2.3711965 -0.017893974 2.7400002
