# .PCD v0.7 - Point Cloud Data file format
VERSION 0.7
FIELDS x y z
SIZE 4 4 4
TYPE F F F
COUNT 1 1 1
WIDTH 1764
HEIGHT 1
VIEWPOINT 0 0 0 1 0 0 0
POINTS 1764
DATA ascii
0 -0 0
0 -0 0
0 -0 0
0 -0 0
0 -0 0
-0 -0 0
-0 -0 0
-0 -0 0
-0 -0 0
-0 -0 0
-0 -0 0
-0 -0 0
-0 -0 0
-0 -0 0
-0 -0 0
-1.5047745 -0.25209409 1.5410001
-1.5013272 -0.25274846 1.5450001
-1.4968748 -0.25323921 1.5480001
-1.4943182 -0.25405717 1.5530001
-1.4907568 -0.25471154 1.557
-1.4890624 -0.25569308 1.5630001
-1.4873111 -0.25667465 1.5690001
-1.4883323 -0.25814697 1.5780001
-1.4864523 -0.25912851 1.5840001
-1.4873163 -0.26060084 1.5930001
-1.4918103 -0.2627275 1.6060001
-1.5017253 -0.26583576 1.6250001
-1.507782 -0.26828963 1.6400001
-1.510952 -0.2702527 1.6520001
-1.5094584 -0.27139783 1.659
-1.5069932 -0.2723794 1.6650001
-1.5044708 -0.27336094 1.6710001
-1.515325 -0.27679634 1.692
-1.512617 -0.27777791 1.6980001
-1.5125102 -0.27925023 1.7070001
-1.5114362 -0.28055894 1.715
-1.5208048 -0.28383079 1.7350001
-1.525624 -0.28628466 1.7500001
-1.5363696 -0.28988364 1.7720001
-1.5339717 -0.2910288 1.779
-1.5306498 -0.29201034 1.7850001
-1.5255651 -0.29266471 1.789
-1.5221386 -0.29364625 1.7950001
-1.5161252 -0.29413703 1.7980001
-1.5343987 -0.29937193 1.83
-1.5381945 -0.30182582 1.845
-1.5418477 -0.30427969 1.8600001
-1.540413 -0.30575201 1.8690001
-1.5380731 -0.30706075 1.8770001
-1.5250663 -0.30624279 1.8720001
-1.5453136 -0.31213206 1.9080001
-1.543479 -0.31360438 1.9170001
-1.5575665 -0.31834853 1.9460001
-1.5602393 -0.32080239 1.9610001
-1.5572331 -0.32211113 1.9690001
-1.5627979 -0.32521936 1.988
-1.5634941 -0.32734606 2.0010002
-1.5656192 -0.32979992 2.016
-1.5791794 -0.33470765 2.046
-1.611631 -0.34370518 2.1010001
-1.6298372 -0.34975803 2.138
-1.6507215 -0.35646528 2.1790001
-1.6689572 -0.36268175 2.217
-1.7092724 -0.37380594 2.2850001
-1.7043433 -0.37511471 2.2930002
-1.724448 -0.38198552 2.335
-1.7602955 -0.39245537 2.3990002
-1.7590836 -0.39474565 2.4130001
-1.7555659 -0.39654511 2.424
-1.7461874 -0.3970359 2.427
-1.7360659 -0.3973631 2.4290001
-1.7259253 -0.3976903 2.4310002
-1.7150604 -0.39785388 2.4320002
-1.7048862 -0.39818102 2.434
-1.6856494 -0.39638156 2.4230001
-1.6754992 -0.39670876 2.4250002
-1.6660161 -0.39719951 2.4280002
-1.6565046 -0.3976903 2.4310002
-1.6476409 -0.39834467 2.4350002
-1.64613 -0.4007985 2.45
-1.6371381 -0.4014529 2.4540002
-1.6261208 -0.40161648 2.4550002
-1.6223277 -0.40357953 2.467
-1.6145035 -0.4045611 2.473
-1.606622 -0.40554264 2.4790001
-1.6044735 -0.40799654 2.4940002
-1.5970736 -0.40914166 2.5010002
-1.5889732 -0.41012323 2.5070002
-1.5795574 -0.41077757 2.5110002
-1.5707281 -0.41159552 2.516
-1.5612316 -0.41224992 2.5200002
-1.5523117 -0.41306785 2.5250001
-1.5421243 -0.41355863 2.5280001
-1.5325134 -0.41421297 2.5320001
-1.522264 -0.41470376 2.5350001
-1.5119863 -0.41519454 2.5380001
-1.5010889 -0.41552174 2.5400002
-1.4819652 -0.41355863 2.5280001
-1.4699335 -0.41355863 2.5280001
-1.4579017 -0.41355863 2.5280001
-1.4458698 -0.41355863 2.5280001
-1.4355395 -0.41404942 2.5310001
-1.4263057 -0.41486734 2.536
-1.4159087 -0.41535813 2.539
-1.4043775 -0.41552174 2.5400002
-1.3939332 -0.41601253 2.5430002
-1.3948711 -0.41993868 2.5670002
-1.3821151 -0.4197751 2.5660002
-1.3725718 -0.42059305 2.5710001
-1.3624517 -0.42124739 2.575
-1.3512449 -0.42157459 2.5770001
-1.3400192 -0.42190179 2.5790002
-1.3272297 -0.42173818 2.5780001
-1.3118995 -0.42075664 2.572
-1.3021851 -0.42157459 2.5770001
-1.2889189 -0.42124739 2.575
-1.2756718 -0.42092025 2.5730002
-1.2629347 -0.42075664 2.572
-1.2497211 -0.42042947 2.5700002
-1.2370079 -0.42026585 2.569
-1.2243041 -0.42010227 2.5680001
-1.205474 -0.41781199 2.5540001
-1.1914496 -0.41715765 2.5500002
-1.1779257 -0.41666687 2.5470002
-1.164888 -0.41633967 2.5450001
-1.1514164 -0.41584888 2.5420001
-1.1384217 -0.41552174 2.5400002
-0 -0 0
-0 -0 0
-0 -0 0
-0 -0 0
-0 -0 0
-0 -0 0
-0.86419845 -0.34076053 2.0830002
-0.85346431 -0.34043336 2.0810001
-0.8419385 -0.33977899 2.0770001
-0.83085138 -0.3392882 2.0740001
-0.81979287 -0.33879742 2.0710001
-0.80876285 -0.33830667 2.0680001
-0.79814768 -0.33797947 2.066
-0.78831476 -0.33797947 2.066
-0.77885866 -0.33814308 2.0670002
-0.76976502 -0.33847025 2.069
-0.76028508 -0.33863387 2.0700002
-0.75115812 -0.33896101 2.072
-0.74165452 -0.33912462 2.0730002
-0.73249418 -0.33945179 2.075
-0.72331494 -0.33977899 2.0770001
-0.71377313 -0.33994257 2.0780001
-0.70422173 -0.34010616 2.079
-0.69466096 -0.34026977 2.0800002
-0.6847614 -0.34026977 2.0800002
-0.67518622 -0.34043336 2.0810001
-0.66560155 -0.34059691 2.082
-0.65600747 -0.34076053 2.0830002
-0.64609361 -0.34076053 2.0830002
-0.63617975 -0.34076053 2.0830002
-0.62626594 -0.34076053 2.0830002
-0.61605608 -0.34059691 2.082
-0.60556477 -0.34026977 2.0800002
-0.59566522 -0.34026977 2.0800002
-0.58548397 -0.34010616 2.079
-0.57614291 -0.34043336 2.0810001
-0.56651068 -0.34059691 2.082
-0.55686891 -0.34076053 2.0830002
-0.54774284 -0.34125131 2.0860002
-0.53833032 -0.34157848 2.0880001
-0.5291518 -0.34206927 2.0910001
-0.51994479 -0.34256002 2.0940001
-0.51095277 -0.34321439 2.098
-0.50144511 -0.34354159 2.1000001
-0.49215242 -0.34403238 2.1030002
-0.48283118 -0.34452313 2.1060002
-0.47348136 -0.34501392 2.1090002
-0.46388325 -0.34534109 2.1110001
-0.4542661 -0.34566829 2.1130002
-0.44462988 -0.34599543 2.115
-0.43518013 -0.34648621 2.118
-0.42550114 -0.34681341 2.1200001
-0.41599903 -0.3473042 2.1230001
-0.40646836 -0.34779495 2.1260002
-0.3967227 -0.34812212 2.128
-0.38713968 -0.3486129 2.131
-0.37735122 -0.3489401 2.1330001
-0.36737156 -0.34910369 2.1340001
-0.35721496 -0.34910369 2.1340001
-0.34705836 -0.34910369 2.1340001
-0.33690178 -0.34910369 2.1340001
-0.32659209 -0.3489401 2.1330001
-0.31644025 -0.3489401 2.1330001
-0.30628842 -0.3489401 2.1330001
-0.29627547 -0.34910369 2.1340001
-0.28625292 -0.34926724 2.135
-0.27596226 -0.34910369 2.1340001
-0.26580569 -0.34910369 2.1340001
-0.2557689 -0.34926724 2.135
-0.24560755 -0.34926724 2.135
-0.23544621 -0.34926724 2.135
-0.2253904 -0.34943086 2.1360002
-0.21532506 -0.34959444 2.1370001
-0.20525019 -0.34975803 2.138
-0.19516583 -0.34992164 2.1390002
-0.18507192 -0.35008523 2.1400001
-0.1749685 -0.35024881 2.141
-0.16547127 -0.35172114 2.1500001
-0.15538295 -0.35204834 2.1520002
-0.14507324 -0.35188472 2.151
-0.13508649 -0.35253912 2.1550002
-0.12506166 -0.35319346 2.1590002
-0.11521141 -0.35450217 2.1670001
-0.1049946 -0.35482937 2.1690001
-0 -0 0
-0 -0 0
-0 -0 0
-0 -0 0
-0 -0 0
-0.052742623 -0.4346619 2.6570001
-0.040443961 -0.4384245 2.6800001
-0.027957357 -0.44267786 2.7060001
-0.015095107 -0.44316864 2.7090001
-0.0022043001 -0.44365942 2.7120001
0.010711118 -0.44398662 2.7140002
0.023645572 -0.44431376 2.7160001
0.036976095 -0.44922149 2.7460001
0.049772069 -0.44676766 2.7310002
0.062793009 -0.44693124 2.7320001
0.077460334 -0.4567467 2.7920001
0.090748608 -0.4567467 2.7920001
0.10396237 -0.45641953 2.7900002
0.11715709 -0.45609233 2.7880001
0.13028598 -0.45560157 2.7850001
0.14323169 -0.45462 2.779
0.1561766 -0.45380208 2.7740002
0.16913497 -0.45314771 2.7700002
0.18152872 -0.4511846 2.7580001
0.19366707 -0.44889435 2.7440002
0.20657623 -0.44856715 2.7420001
0.21962653 -0.44856715 2.7420001
0.23259197 -0.44840357 2.7410002
0 -0 0
0 -0 0
0 -0 0
0 -0 0
0 -0 0
0 -0 0
0 -0 0
0 -0 0
0 -0 0
0 -0 0
0 -0 0
0 -0 0
0 -0 0
0 -0 0
0 -0 0
0 -0 0
0 -0 0
0 -0 0
0 -0 0
0 -0 0
0 -0 0
0 -0 0
0 -0 0
0 -0 0
0.58523011 -0.46967041 2.8710001
0.60348362 -0.47326943 2.8930001
0.62173313 -0.47670484 2.914
0.6360383 -0.47703204 2.9160001
0.65036255 -0.47735921 2.9180002
0.67426658 -0.48455721 2.9620001
0.68999076 -0.48570237 2.9690001
0.70507008 -0.48635671 2.973
0.71970361 -0.48668391 2.9750001
0.73361623 -0.48652032 2.9740002
0.74726778 -0.48619312 2.9720001
0.76090044 -0.48586592 2.97
0.7630319 -0.47834074 2.924
0.77827704 -0.4791587 2.9290001
0.79275835 -0.4794859 2.9310002
0.80698335 -0.47964948 2.9320002
0.821778 -0.48014027 2.9350002
0.83631635 -0.48046741 2.937
0.85347933 -0.48226696 2.9480002
0.86751014 -0.48226696 2.9480002
0.88243794 -0.48275772 2.9510002
0.89709049 -0.48308489 2.9530001
0.9096024 -0.48226696 2.9480002
0.92269319 -0.48177618 2.9450002
0.93607342 -0.48144898 2.9430001
0.94943482 -0.48112181 2.9410002
0.96375978 -0.48128539 2.9420002
0.97809428 -0.48144898 2.9430001
0.99311262 -0.48193976 2.9460001
1.0085013 -0.4825941 2.95
1.0235814 -0.48308489 2.9530001
1.0390415 -0.48373929 2.9570003
1.0538274 -0.48406643 2.9590001
1.0689931 -0.48455721 2.9620001
1.0874785 -0.48652032 2.9740002
1.1020033 -0.48668391 2.9750001
1.1165378 -0.48684749 2.9760001
1.1303219 -0.48668391 2.9750001
1.1437117 -0.48635671 2.973
1.1547458 -0.485048 2.9650002
1.1692517 -0.48521158 2.9660001
1.1825702 -0.48488441 2.9640002
1.1853724 -0.48030385 2.9360001
1.1956695 -0.4788315 2.927
1.1914171 -0.47163352 2.8830001
1.1925981 -0.46672577 2.8530002
1.190534 -0.46067291 2.8160002
1.1239876 -0.43008134 2.6290002
1.093703 -0.41388583 2.5300002
1.0812694 -0.40472472 2.4740002
1.0775807 -0.39899901 2.4390001
1.0842767 -0.39719951 2.4280002
1.0804871 -0.39163738 2.3940001
1.090969 -0.39131024 2.3920002
1.1041969 -0.39196458 2.3960001
1.1146692 -0.39163738 2.3940001
1.1255929 -0.3914738 2.3930001
1.1360319 -0.3911466 2.391
0 -0 0
0 -0 0
0 -0 0
0 -0 0
0 -0 0
0 -0 0
1.5187231 -0.48864701 2.9870002
1.5293469 -0.48750189 2.9800003
1.5450838 -0.48799261 2.983
1.5801902 -0.49453631 3.0230002
1.5956327 -0.49486345 3.0250001
1.6110945 -0.49519065 3.0270002
1.6292603 -0.4963358 3.0340002
1.6458672 -0.49699014 3.0380001
1.663059 -0.49780813 3.0430002
1.6786444 -0.49813527 3.0450001
1.6942489 -0.49846247 3.0470002
1.7098725 -0.49878967 3.0490003
1.7249495 -0.49895325 3.0500002
1.7394656 -0.49895325 3.0500002
1.7557071 -0.49944404 3.0530002
1.7789351 -0.50189787 3.0680001
1.7958752 -0.50255221 3.072
1.8122642 -0.503043 3.075
1.8280878 -0.50337023 3.0770001
1.8606986 -0.50827795 3.1070001
1.877297 -0.50876874 3.1100001
1.8914905 -0.50860512 3.1090002
1.9087399 -0.50925952 3.1130002
1.9254098 -0.50975025 3.1160002
1.9414854 -0.51007742 3.118
1.9550704 -0.50975025 3.1160002
1.9686364 -0.50942308 3.1140001
1.9828203 -0.50925952 3.1130002
1.9963528 -0.50893229 3.1110001
2.0098665 -0.50860512 3.1090002
2.023361 -0.50827795 3.1070001
2.0374925 -0.50811434 3.1060002
2.0806873 -0.51514876 3.1490002
2.0950093 -0.5149852 3.1480002
2.133451 -0.52071089 3.1830001
2.1492753 -0.5208745 3.1840003
2.1671486 -0.52152884 3.1880002
2.1850595 -0.52218318 3.1920002
2.2002516 -0.52218318 3.1920002
2.2119734 -0.52136523 3.187
2.2250452 -0.5208745 3.1840003
2.2366812 -0.52005649 3.1790001
2.2503946 -0.51972932 3.177
2.2648022 -0.51956576 3.1760001
2.2806358 -0.51972932 3.177
2.2972019 -0.52005649 3.1790001
2.3152413 -0.52071089 3.1830001
2.332587 -0.52120167 3.1860001
2.3588042 -0.52365553 3.2010002
2.3747807 -0.52381909 3.2020001
2.3959916 -0.52512783 3.21
2.414274 -0.52578223 3.2140002
2.4318388 -0.52627301 3.2170002
2.4486709 -0.52660018 3.2190001
2.464757 -0.5267638 3.2200003
2.4800825 -0.5267638 3.2200003
2.4954076 -0.5267638 3.2200003
2.5107329 -0.5267638 3.2200003
2.5284116 -0.52725452 3.223
2.5429618 -0.52709091 3.2220001
2.5590909 -0.52725452 3.223
2.5728331 -0.52692735 3.2210002
2.5833418 -0.52594578 3.2150002
2.5849025 -0.52316475 3.1980002
2.5976839 -0.52267396 3.1950002
2.6186147 -0.52381909 3.2020001
2.6313868 -0.52332836 3.1990001
2.6441302 -0.52283758 3.1960001
2.6568449 -0.52234679 3.1930001
2.6703682 -0.52201962 3.1910002
2.6830306 -0.52152884 3.1880002
2.6965108 -0.52120167 3.1860001
2.709121 -0.52071089 3.1830001
2.7208467 -0.52005649 3.1790001
2.6989691 -0.51302207 3.1360002
0 -0 0
0 -0 0
0 -0 0
0 -0 0
0 -0 0
0 -0 0
0 -0 0
0 -0 0
0 -0 0
0 -0 0
0 -0 0
0 -0 0
0 -0 0
0 -0 0
0 -0 0
0 -0 0
0 -0 0
0 -0 0
0 -0 0
0 -0 0
0 -0 0
0 -0 0
0 -0 0
0 -0 0
0 -0 0
0 -0 0
0 -0 0
-0 -0 0
-0 -0 0
-0 -0 0
-0 -0 0
-0 -0 0
-0 -0 0
-0 -0 0
-0 -0 0
-0 -0 0
-0 -0 0
-1.5037979 -0.244601 1.5400001
-1.5013272 -0.24539515 1.5450001
-1.4968748 -0.24587165 1.5480001
-1.493356 -0.24650697 1.552
-1.4907568 -0.24730113 1.557
-1.4890624 -0.24825412 1.5630001
-1.4863632 -0.24904828 1.5680001
-1.4883323 -0.25063661 1.5780001
-1.4864523 -0.2515896 1.5840001
-1.485449 -0.2527014 1.5910001
-1.4899526 -0.25476623 1.6040001
-1.5026494 -0.25826052 1.626
-1.5068625 -0.26032534 1.6390001
-1.5127811 -0.2627078 1.654
-1.5094584 -0.26350197 1.659
-1.506088 -0.26429611 1.664
-1.5044708 -0.26540798 1.6710001
-1.515325 -0.26874343 1.692
-1.5143987 -0.27001408 1.7
-1.5125102 -0.27112591 1.7070001
-1.5096736 -0.2720789 1.7130001
-1.5199282 -0.27541438 1.7340001
-1.5247523 -0.27779683 1.7490001
-1.5441729 -0.28287947 1.7810001
-1.5322472 -0.28224412 1.7770001
-1.5306498 -0.2835148 1.7850001
-1.5247126 -0.28399128 1.7880001
-1.5204426 -0.28478545 1.7930001
-0 -0 0
-1.5343987 -0.2906622 1.83
-1.5381945 -0.29304469 1.845
-1.5418477 -0.29542717 1.8600001
-1.540413 -0.29685664 1.8690001
-1.5388925 -0.29828614 1.8780001
-1.5258809 -0.297492 1.8730001
-1.5202063 -0.29812732 1.8770001
-1.5386481 -0.30352759 1.9110001
-1.535956 -0.30479825 1.9190001
-1.5538743 -0.31019852 1.9530001
-1.558024 -0.31289867 1.9700001
-1.5612258 -0.31543997 1.9860001
-1.5650567 -0.31814012 2.003
-1.5632894 -0.31972843 2.013
-1.5791794 -0.32496989 2.046
-1.6139323 -0.33418214 2.1040001
-1.6496575 -0.34371203 2.164
-1.6734483 -0.35085946 2.2090001
-1.6930468 -0.35721275 2.2490001
-1.7115165 -0.36340719 2.2880001
-1.7385343 -0.37150761 2.3390002
-1.7554659 -0.37754321 2.3770001
-1.7646981 -0.38199052 2.4050002
-1.7598126 -0.38341999 2.414
-1.7504961 -0.38389647 2.4170001
-1.7461874 -0.38548478 2.427
-1.7360659 -0.38580248 2.4290001
-1.7259253 -0.38612014 2.4310002
-1.7122395 -0.38564366 2.4280002
-1.702785 -0.38612014 2.4310002
-1.6870408 -0.38516715 2.4250002
-1.676881 -0.38548478 2.427
-1.6673883 -0.38596129 2.4300001
-1.6585486 -0.38659662 2.434
-1.657114 -0.38897911 2.4490001
-1.6474738 -0.38945562 2.4520001
-1.6391394 -0.39024976 2.457
-1.6274455 -0.39024976 2.457
-1.6210126 -0.39152041 2.4650002
-1.6125449 -0.39231455 2.47
-1.6111586 -0.39485589 2.4860001
-1.6051167 -0.39628538 2.4950001
-1.5970736 -0.39723837 2.5010002
-1.5889732 -0.39819136 2.5070002
-1.5801864 -0.39898551 2.5120001
-1.5713525 -0.39977968 2.5170002
-1.561851 -0.400415 2.5210001
-1.5529263 -0.40120915 2.526
-1.5433444 -0.4018445 2.5300002
-1.533724 -0.40247983 2.5340002
-1.5234652 -0.40295631 2.5370002
-1.5131778 -0.40343282 2.5400002
-1.5022707 -0.40375045 2.5420001
-1.4837239 -0.40200332 2.5310001
-1.4710965 -0.4018445 2.5300002
-1.4584783 -0.40168566 2.529
-1.4464418 -0.40168566 2.529
-1.4355395 -0.40200332 2.5310001
-1.4257432 -0.40263864 2.5350001
-1.4214853 -0.40486228 2.549
-1.4104594 -0.40517995 2.5510001
-1.4005108 -0.40581527 2.5550001
-1.3921541 -0.40692708 2.562
-1.3799605 -0.40692708 2.562
-1.3704363 -0.40772128 2.5670002
-1.3608644 -0.40851539 2.572
-1.3496718 -0.40883309 2.5740001
-1.3379408 -0.4089919 2.575
-1.3262001 -0.40915075 2.5760002
-1.3134297 -0.4089919 2.575
-1.3006691 -0.40883309 2.5740001
-1.2874172 -0.40851539 2.572
-1.2741845 -0.40819776 2.5700002
-1.2609706 -0.4078801 2.5680001
-1.2487484 -0.4078801 2.5680001
-1.2302667 -0.40581527 2.5550001
-1.216676 -0.40533876 2.552
-1.203114 -0.40486228 2.549
-1.1895806 -0.40438578 2.546
-1.1760758 -0.40390933 2.5430002
-1.1635149 -0.40375045 2.5420001
-1.1505105 -0.40343282 2.5400002
-1.1379733 -0.40327397 2.539
-0 -0 0
-0 -0 0
-0 -0 0
-0 -0 0
-0 -0 0
-0 -0 0
-0.86419845 -0.33084667 2.0830002
-0.85305423 -0.33037019 2.0800002
-0.8419385 -0.32989368 2.0770001
-0.83085138 -0.32941717 2.0740001
-0.81939703 -0.32878187 2.0700002
-0.80837178 -0.32830536 2.0670002
-0.79814768 -0.32814652 2.066
-0.78831476 -0.32814652 2.066
-0.77885866 -0.32830536 2.0670002
-0.76939297 -0.32846418 2.0680001
-0.75991774 -0.328623 2.069
-0.75079566 -0.32894069 2.0710001
-0.74165452 -0.32925835 2.0730002
-0.73249418 -0.32957602 2.075
-0.72331494 -0.32989368 2.0770001
-0.71342963 -0.32989368 2.0770001
-0.70388305 -0.3300525 2.0780001
-0.69432694 -0.33021131 2.079
-0.6850906 -0.330529 2.0810001
-0.67551064 -0.33068782 2.082
-0.66560155 -0.33068782 2.082
-0.65569252 -0.33068782 2.082
-0.64609361 -0.33084667 2.0830002
-0.63587427 -0.33068782 2.082
-0.62566459 -0.330529 2.0810001
-0.61546433 -0.33037019 2.0800002
-0.6052736 -0.33021131 2.079
-0.59509242 -0.3300525 2.0780001
-0.58492076 -0.32989368 2.0770001
-0.57531232 -0.3300525 2.0780001
-0.56596649 -0.33037019 2.0800002
-0.55660152 -0.33068782 2.082
-0.54748017 -0.33116433 2.085
-0.53833032 -0.33164081 2.0880001
-0.5291518 -0.33211732 2.0910001
-0.51994479 -0.33259383 2.0940001
-0.51095277 -0.33322912 2.098
-0.50168383 -0.33370563 2.1010001
-0.49238643 -0.33418214 2.1040001
-0.48283118 -0.33449981 2.1060002
-0.47325683 -0.33481744 2.108
-0.46366352 -0.33513513 2.1100001
-0.45405108 -0.33545277 2.112
-0.44441968 -0.33577046 2.1140001
-0.43497467 -0.33624694 2.1170001
-0.4250997 -0.33640575 2.118
-0.4158031 -0.33704114 2.1220002
-0.40608597 -0.33735877 2.1240001
-0.39653629 -0.33783525 2.1270001
-0.38677639 -0.33815295 2.1290002
-0.37699738 -0.33847058 2.131
-0.36719942 -0.33878827 2.1330001
-0.35704759 -0.33878827 2.1330001
-0.34689572 -0.33878827 2.1330001
-0.33674392 -0.33878827 2.1330001
-0.32659209 -0.33878827 2.1330001
-0.31629193 -0.33862945 2.1320002
-0.30628842 -0.33878827 2.1330001
-0.29613662 -0.33878827 2.1330001
-0.28611887 -0.33894709 2.1340001
-0.27583295 -0.33878827 2.1330001
-0.26568115 -0.33878827 2.1330001
-0.25564912 -0.33894709 2.1340001
-0.24560755 -0.3391059 2.135
-0.23544621 -0.3391059 2.135
-0.2253904 -0.33926475 2.1360002
-0.21542582 -0.33958241 2.138
-0.2053462 -0.33974126 2.1390002
-0.19534829 -0.34005889 2.141
-0.18524489 -0.34021777 2.1420002
-0.17562228 -0.34132957 2.1490002
-0.16562521 -0.34180608 2.1520002
-0.15552734 -0.34212372 2.154
-0.14520814 -0.3419649 2.1530001
-0.13521186 -0.34260023 2.1570001
-0.1251775 -0.34323552 2.161
-0.11515825 -0.34402972 2.1660001
-0.105043 -0.34466502 2.1700001
-0 -0 0
-0 -0 0
-0 -0 0
-0 -0 0
-0.065068454 -0.41995129 2.6440001
-0.05268307 -0.4215396 2.654
-0.040428869 -0.42551044 2.6790001
-0.027978022 -0.43011656 2.7080002
-0.015106252 -0.43059304 2.7110002
-0.0022059258 -0.43106955 2.7140002
0.010711118 -0.43106955 2.7140002
0.023654278 -0.43154606 2.7170002
0.037003029 -0.43646982 2.7480001
0.049772069 -0.4337697 2.7310002
0.064126097 -0.44314077 2.7900002
0.077515826 -0.4437761 2.7940001
0.090813622 -0.4437761 2.7940001
0.10403689 -0.44345841 2.7920001
0.11724113 -0.44314077 2.7900002
0.13042633 -0.44282308 2.7880001
0.14328323 -0.44155246 2.7800002
0.1561766 -0.44059944 2.7740002
0.16913497 -0.43996415 2.7700002
0.18027815 -0.43504032 2.7390001
0.19352591 -0.43551683 2.7420001
0.20642556 -0.43519917 2.7400002
0 -0 0
0 -0 0
0 -0 0
0 -0 0
0 -0 0
0 -0 0
0 -0 0
0 -0 0
0 -0 0
0 -0 0
0 -0 0
0 -0 0
0 -0 0
0 -0 0
0 -0 0
0 -0 0
0 -0 0
0 -0 0
0 -0 0
0 -0 0
0 -0 0
0 -0 0
0 -0 0
0 -0 0
0 -0 0
0 -0 0
0.59012234 -0.45981812 2.8950002
0.6055696 -0.46108875 2.9030001
0.6232267 -0.46394774 2.9210002
0.64410877 -0.46903032 2.9530001
0.65883195 -0.46950683 2.9560001
0.67403895 -0.470301 2.9610002
0.69092035 -0.47220695 2.973
0.70578158 -0.47268346 2.9760001
0.72018749 -0.47284234 2.9770002
0.73410958 -0.47268346 2.9760001
0.74751925 -0.47220695 2.973
0.76090044 -0.47173047 2.97
0.77451396 -0.47141284 2.9680002
0.77933985 -0.46585369 2.9330001
0.79384023 -0.46617138 2.9350002
0.80780905 -0.46617138 2.9350002
0.82205796 -0.4663302 2.9360001
0.83688587 -0.46680671 2.9390001
0.85318977 -0.46807733 2.947
0.86721581 -0.46807733 2.947
0.88183987 -0.46839502 2.9490001
0.89617914 -0.46855384 2.95
0.9096024 -0.46823618 2.9480002
0.92269319 -0.4677597 2.9450002
0.93607342 -0.46744201 2.9430001
0.94943482 -0.46712437 2.9410002
0.96375978 -0.46728319 2.9420002
0.97842669 -0.46760088 2.9440002
0.9927755 -0.4677597 2.9450002
1.0081594 -0.46839502 2.9490001
1.0235814 -0.46903032 2.9530001
1.0386901 -0.46950683 2.9560001
1.0538274 -0.46998334 2.9590001
1.0693541 -0.47061864 2.9630001
1.0885755 -0.47284234 2.9770002
1.1034851 -0.47315997 2.9790001
1.1180385 -0.47331882 2.9800003
1.1322217 -0.47331882 2.9800003
1.1456352 -0.47300115 2.9780002
1.1555247 -0.47125399 2.9670002
1.1696459 -0.47125399 2.9670002
1.1833681 -0.47109514 2.9660001
1.185776 -0.46648902 2.937
1.1985291 -0.46601257 2.9340003
1.1972027 -0.46013576 2.8970001
1.2072287 -0.45870629 2.8880002
1.1757368 -0.44171128 2.7810001
0 -0 0
1.0738175 -0.39453822 2.4840002
1.0646613 -0.38691428 2.4360001
1.0758134 -0.38675547 2.4350002
1.0708793 -0.38087866 2.398
1.0678499 -0.37579608 2.3660002
1.0777423 -0.37531957 2.3630002
1.0839195 -0.37357241 2.352
1.0941825 -0.37325478 2.3500001
1.1044263 -0.37293708 2.348
1.1350818 -0.37944922 2.3890002
0 -0 0
0 -0 0
0 -0 0
0 -0 0
0 -0 0
0 -0 0
1.5344849 -0.47935441 3.0180001
1.5503882 -0.47983092 3.0210001
1.5668383 -0.48046622 3.0250001
1.5880309 -0.48253104 3.0380001
1.6030173 -0.48268986 3.039
1.6185458 -0.48300755 3.0410001
1.6314082 -0.48253104 3.0380001
1.6474925 -0.48300755 3.0410001
1.6636055 -0.48348403 3.0440001
1.6786444 -0.48364285 3.0450001
1.6942489 -0.48396054 3.0470002
1.7093116 -0.48411936 3.0480001
1.7238183 -0.48411936 3.0480001
1.7377546 -0.48396054 3.0470002
1.7493812 -0.48316637 3.0420001
1.7632796 -0.48300755 3.0410001
1.7765836 -0.48268986 3.039
1.7916369 -0.48284873 3.0400002
1.8286818 -0.4888843 3.0780001
1.844529 -0.48920199 3.0800002
1.877297 -0.49396694 3.1100001
1.8933157 -0.4942846 3.1120002
1.9087399 -0.49444345 3.1130002
1.9260277 -0.49507874 3.1170001
1.9421082 -0.49539644 3.1190002
1.9563252 -0.49523756 3.118
1.9705329 -0.49507874 3.1170001
1.9847312 -0.49491993 3.1160002
1.9982779 -0.49460226 3.1140001
2.0111594 -0.49412575 3.1110001
2.0246637 -0.49380812 3.1090002
2.0388043 -0.49364924 3.108
2.0535967 -0.49364924 3.108
2.0950093 -0.50000256 3.1480002
2.133451 -0.50556165 3.1830001
2.1479251 -0.5054028 3.1820002
2.1657889 -0.50603813 3.1860001
2.185744 -0.50714999 3.1930001
2.2002516 -0.50699115 3.1920002
2.2126675 -0.50635582 3.1880002
2.2250452 -0.5057205 3.1840003
2.2352738 -0.50460863 3.177
2.2482698 -0.50413221 3.1740003
2.2626629 -0.50397331 3.1730001
2.2784824 -0.50413221 3.1740003
2.2950339 -0.50444984 3.1760001
2.3130593 -0.50508517 3.1800001
2.32673 -0.50476754 3.1780002
2.3588042 -0.50842065 3.2010002
2.3747807 -0.50857943 3.2020001
2.3982308 -0.51032662 3.2130001
2.4157763 -0.5108031 3.2160001
2.4333506 -0.51127958 3.2190001
2.4494317 -0.51143843 3.2200003
2.4655225 -0.51159728 3.2210002
2.4808526 -0.51159728 3.2210002
2.4954076 -0.51143843 3.2200003
2.5107329 -0.51143843 3.2200003
2.5299807 -0.5122326 3.2250001
2.543751 -0.51191491 3.223
2.5582969 -0.51175612 3.2220001
2.5712354 -0.51127958 3.2190001
2.5833418 -0.51064426 3.2150002
2.5840943 -0.50778532 3.1970003
2.5976839 -0.50746763 3.1950002
2.6169791 -0.5082618 3.2
2.6305642 -0.50794417 3.1980002
2.6441302 -0.50762647 3.1960001
2.6576772 -0.50730884 3.1940002
2.671205 -0.50699115 3.1920002
2.6847138 -0.50667346 3.1900001
2.6982036 -0.50635582 3.1880002
2.7099721 -0.5057205 3.1840003
2.7225585 -0.50524402 3.1810002
2.7351162 -0.50476754 3.1780002
0 -0 0
0 -0 0
0 -0 0
0 -0 0
0 -0 0
0 -0 0
0 -0 0
0 -0 0
0 -0 0
0 -0 0
0 -0 0
0 -0 0
0 -0 0
0 -0 0
0 -0 0
0 -0 0
0 -0 0
0 -0 0
0 -0 0
0 -0 0
0 -0 0
0 -0 0
0 -0 0
0 -0 0
0 -0 0
0 -0 0
0 -0 0
-0 -0 0
-0 -0 0
-0 -0 0
-0 -0 0
-0 -0 0
-0 -0 0
-0 -0 0
-0 -0 0
-0 -0 0
-0 -0 0
-1.5037979 -0.23727152 1.5400001
-1.5013272 -0.23804188 1.5450001
-1.4968748 -0.2385041 1.5480001
-1.493356 -0.23912038 1.552
-1.4917142 -0.24004482 1.5580001
-1.4890624 -0.24081518 1.5630001
-1.4873111 -0.24173962 1.5690001
-1.4892755 -0.24328034 1.5790001
-1.4873908 -0.24420476 1.585
-1.4845153 -0.24497513 1.59
-1.4880948 -0.24682401 1.6020001
-1.5017253 -0.25036767 1.6250001
-1.5059432 -0.25237063 1.6380001
-1.5118667 -0.25468171 1.6530001
-1.5094584 -0.25560611 1.659
-1.506088 -0.25637648 1.664
-1.5053711 -0.25760907 1.6720001
-1.5135338 -0.26038238 1.6900001
-1.5143987 -0.2619231 1.7
-1.5125102 -0.26300162 1.7070001
-1.5123175 -0.26438826 1.7160001
-1.5199282 -0.26716155 1.7340001
-1.5264958 -0.26978078 1.751
-1.5224972 -0.27055115 1.756
-1.5313849 -0.27363262 1.7760001
-1.5306498 -0.27501926 1.7850001
-1.5298289 -0.2764059 1.794
-1.5204426 -0.27625182 1.7930001
-1.5211846 -0.27794665 1.8040001
-1.5142754 -0.27825478 1.8060001
-1.5381945 -0.28426358 1.845
-1.5410187 -0.28642061 1.8590001
-1.5395888 -0.28780726 1.868
-1.5372536 -0.28903985 1.876
-1.5258809 -0.28857765 1.8730001
-1.5202063 -0.28919393 1.8770001
-1.5410634 -0.29489458 1.914
-1.535956 -0.29566497 1.9190001
-1.5514873 -0.30044121 1.95
-1.5564421 -0.30321449 1.9680001
-1.555723 -0.30490929 1.9790001
-1.5658381 -0.30876112 2.0040002
-1.5625129 -0.30999368 2.0120001
-1.5776358 -0.314924 2.0440001
-1.6146992 -0.3243224 2.105
-1.6656663 -0.33664823 2.1850002
-1.6734483 -0.34034595 2.2090001
-1.6922941 -0.34635478 2.2480001
-1.7137606 -0.3529799 2.2910001
-1.740764 -0.36083758 2.342
-1.7576815 -0.36669233 2.3800001
-1.7691005 -0.37146857 2.411
-1.7612706 -0.37223893 2.4160001
-1.7519448 -0.37270117 2.4190001
-1.7433096 -0.37331745 2.4230001
-1.7339216 -0.37377968 2.4260001
-1.7237954 -0.37408784 2.4280002
-1.7143551 -0.37455004 2.4310002
-1.7041857 -0.37485817 2.4330001
-1.6939976 -0.37516633 2.4350002
-1.6872449 -0.37624484 2.4420002
-1.677681 -0.37670705 2.4450002
-1.6680884 -0.37716928 2.4480002
-1.6591439 -0.37778556 2.4520001
-1.6488177 -0.37809372 2.4540002
-1.6398066 -0.37871 2.4580002
-1.628108 -0.37871 2.4580002
-1.6210126 -0.37978849 2.4650002
-1.6118921 -0.38040477 2.4690001
-1.6092143 -0.38256177 2.483
-1.6044735 -0.3842566 2.4940002
-1.5964348 -0.38518101 2.5
-1.5889732 -0.38625956 2.5070002
-1.5801864 -0.38702989 2.5120001
-1.5713525 -0.38780028 2.5170002
-1.561851 -0.38841656 2.5210001
-1.5529263 -0.38918689 2.526
-1.5439544 -0.38995728 2.5310001
-1.533724 -0.39041948 2.5340002
-1.5240655 -0.39103577 2.5380001
-1.5131778 -0.39134395 2.5400002
-1.5022707 -0.39165205 2.5420001
-1.4907585 -0.39180616 2.5430002
-1.4786555 -0.39180616 2.5430002
-1.4602084 -0.39011133 2.5320001
-1.4475857 -0.38995728 2.5310001
-1.4429129 -0.3919602 2.5440001
-1.4313675 -0.39211428 2.5450001
-1.4203701 -0.39242244 2.5470002
-1.4093535 -0.39273056 2.549
-1.3988664 -0.39319277 2.552
-1.3899807 -0.39411724 2.5580001
-1.3778059 -0.39411724 2.5580001
-1.3661654 -0.39427128 2.559
-1.3619226 -0.39658239 2.5740001
-1.3507206 -0.39689055 2.5760002
-1.3369017 -0.39642832 2.5730002
-1.3246557 -0.39642832 2.5730002
-1.308329 -0.39519572 2.5650001
-1.2951107 -0.3948876 2.5630002
-1.2859155 -0.395812 2.569
-1.2726971 -0.39550388 2.5670002
-1.2599887 -0.39534983 2.5660002
-1.2468034 -0.39504167 2.5640001
-1.2283406 -0.39303872 2.5510001
-1.214769 -0.39257649 2.5480001
-1.2012261 -0.39211428 2.5450001
-1.1877117 -0.39165205 2.5420001
-1.1746883 -0.39134395 2.5400002
-1.1621417 -0.39118984 2.539
-1.1496047 -0.39103577 2.5380001
-1.137077 -0.39088172 2.5370002
-0 -0 0
-0 -0 0
-0 -0 0
-0 -0 0
-0 -0 0
-0 -0 0
-0.86419845 -0.32093284 2.0830002
-0.85305423 -0.32047063 2.0800002
-0.84153318 -0.31985435 2.0760002
-0.83045083 -0.31939211 2.0730002
-0.81900114 -0.3187758 2.069
-0.80837178 -0.31846768 2.0670002
-0.79814768 -0.3183136 2.066
-0.78831476 -0.3183136 2.066
-0.77848178 -0.3183136 2.066
-0.76902097 -0.31846768 2.0670002
-0.75955051 -0.31862175 2.0680001
-0.75043315 -0.31892991 2.0700002
-0.74129665 -0.31923804 2.072
-0.73178822 -0.31939211 2.0730002
-0.7226184 -0.31970024 2.075
-0.71342963 -0.3200084 2.0770001
-0.70388305 -0.32016248 2.0780001
-0.69432694 -0.32031652 2.079
-0.6847614 -0.32047063 2.0800002
-0.67518622 -0.32062468 2.0810001
-0.66560155 -0.32077876 2.082
-0.65600747 -0.32093284 2.0830002
-0.64547324 -0.32062468 2.0810001
-0.63556892 -0.32062468 2.0810001
-0.62506324 -0.32031652 2.079
-0.61516839 -0.32031652 2.079
-0.60469139 -0.3200084 2.0770001
-0.59451973 -0.31985435 2.0760002
-0.58463913 -0.31985435 2.0760002
-0.57503545 -0.3200084 2.0770001
-0.56569433 -0.32031652 2.079
-0.5563342 -0.32062468 2.0810001
-0.54748017 -0.32124096 2.085
-0.53858811 -0.32185724 2.089
-0.52940488 -0.32231948 2.092
-0.5201931 -0.32278168 2.095
-0.51119632 -0.32339802 2.0990002
-0.50192261 -0.3238602 2.102
-0.49238643 -0.32416835 2.1040001
-0.48283118 -0.32447651 2.1060002
-0.47325683 -0.32478464 2.108
-0.46366352 -0.32509279 2.1100001
-0.45405108 -0.32540092 2.112
-0.44420946 -0.32555503 2.1130002
-0.43456373 -0.32586312 2.115
-0.42489901 -0.32617131 2.1170001
-0.41541117 -0.32663351 2.1200001
-0.4057036 -0.32694167 2.1220002
-0.3961634 -0.32740384 2.125
-0.38659468 -0.32786608 2.128
-0.37682047 -0.32817423 2.1300001
-0.36685508 -0.32832831 2.131
-0.35688019 -0.32848239 2.1320002
-0.34673312 -0.32848239 2.1320002
-0.33658606 -0.32848239 2.1320002
-0.32643899 -0.32848239 2.1320002
-0.31614354 -0.32832831 2.131
-0.30600122 -0.32832831 2.131
-0.2959978 -0.32848239 2.1320002
-0.28598478 -0.32863647 2.1330001
-0.27583295 -0.32863647 2.1330001
-0.26568115 -0.32863647 2.1330001
-0.25552931 -0.32863647 2.1330001
-0.24549253 -0.32879052 2.1340001
-0.23533593 -0.32879052 2.1340001
-0.2253904 -0.32909867 2.1360002
-0.21532506 -0.32925275 2.1370001
-0.20544219 -0.32971495 2.1400001
-0.19543955 -0.33002311 2.1420002
-0.18576376 -0.33094752 2.148
-0.17578572 -0.33140975 2.151
-0.16570216 -0.33171791 2.1530001
-0.15531074 -0.33140975 2.151
-0.14527558 -0.33187196 2.154
-0.13527453 -0.33248824 2.158
-0.12523544 -0.33310455 2.1620002
-0.11521141 -0.33387491 2.1670001
-0.1050914 -0.33449119 2.171
-0 -0 0
-0 -0 0
-0 -0 0
-0 -0 0
-0 -0 0
-0.053238884 -0.41322222 2.6820002
-0.040911783 -0.41769031 2.7110002
-0.028009018 -0.41769031 2.7110002
-0.015117396 -0.41799843 2.7130001
-0.0022059258 -0.41815254 2.7140002
0.010715064 -0.41830659 2.7150002
0.023662984 -0.41876882 2.7180002
0.037016492 -0.42354506 2.7490001
0.050829109 -0.42970794 2.789
0.064126097 -0.42986205 2.7900002
0.077599056 -0.43094054 2.7970002
0.090911128 -0.43094054 2.7970002
0.10414868 -0.43063238 2.7950001
0.1173672 -0.43032426 2.7930002
0.13056667 -0.4300161 2.7910001
0.14333478 -0.42847538 2.7810001
0.1561766 -0.42739686 2.7740002
0.16913497 -0.42678058 2.7700002
0 -0 0
0 -0 0
0 -0 0
0 -0 0
0 -0 0
0 -0 0
0 -0 0
0 -0 0
0 -0 0
0 -0 0
0 -0 0
0 -0 0
0 -0 0
0 -0 0
0 -0 0
0 -0 0
0 -0 0
0 -0 0
0 -0 0
0 -0 0
0 -0 0
0 -0 0
0 -0 0
0 -0 0
0 -0 0
0 -0 0
0 -0 0
0 -0 0
0 -0 0
0 -0 0
0.60932446 -0.45004553 2.9210002
0.62344003 -0.4501996 2.9220002
0.64454502 -0.45528397 2.9550002
0.65883195 -0.45543805 2.9560001
0.67335606 -0.4557462 2.9580002
0.68836397 -0.45636249 2.9620001
0.7029357 -0.45667064 2.9640002
0.72018749 -0.4586736 2.9770002
0.73410958 -0.45851949 2.9760001
0.74450201 -0.45620841 2.9610002
0.75808227 -0.45590025 2.9590001
0.77425301 -0.45713285 2.9670002
0.78040272 -0.45251065 2.937
0.79465169 -0.45266476 2.9380002
0.8083595 -0.45251065 2.937
0.82261801 -0.45266476 2.9380002
0.8371706 -0.45297289 2.9400001
0.85000521 -0.45235661 2.9360001
0.8669216 -0.45389733 2.9460001
0.8812418 -0.45405138 2.947
0.89557159 -0.45420548 2.9480002
0.9096024 -0.45420548 2.9480002
0.92269319 -0.45374325 2.9450002
0.93607342 -0.45343509 2.9430001
0.94943482 -0.45312697 2.9410002
0.96375978 -0.45328104 2.9420002
0.97809428 -0.45343509 2.9430001
0.9927755 -0.45374325 2.9450002
1.0078176 -0.45420548 2.9480002
1.0232347 -0.45482177 2.9520001
1.0386901 -0.45543805 2.9560001
1.0538274 -0.45590025 2.9590001
1.069715 -0.45667064 2.9640002
1.0893068 -0.45898169 2.9790001
1.1045964 -0.45944393 2.9820001
1.119164 -0.45959798 2.983
1.1333615 -0.45959798 2.983
1.1467893 -0.45928988 2.9810002
1.1563036 -0.45744097 2.9690001
1.1704344 -0.45744097 2.9690001
1.1841661 -0.45728692 2.9680002
1.1865835 -0.45281881 2.9390001
1.1993461 -0.45235661 2.9360001
1.1959629 -0.44588554 2.8940001
0 -0 0
0 -0 0
0 -0 0
0 -0 0
0 -0 0
1.0532809 -0.36730862 2.3840001
1.0690931 -0.36884934 2.3940001
1.0673985 -0.36438122 2.365
1.0722692 -0.36222422 2.3510001
1.0783894 -0.36052945 2.3400002
1.0881295 -0.36006722 2.3370001
1.0992522 -0.36006722 2.3370001
0 -0 0
0 -0 0
0 -0 0
0 -0 0
0 -0 0
0 -0 0
0 -0 0
1.5339764 -0.46483648 3.0170002
1.5503882 -0.46545276 3.0210001
1.5663203 -0.46591496 3.0240002
1.5869856 -0.46776387 3.0360003
1.6024899 -0.46807197 3.0380001
1.6180136 -0.46838015 3.0400002
1.6319453 -0.46822605 3.039
1.6474925 -0.4685342 3.0410001
1.6636055 -0.46899641 3.0440001
1.6780932 -0.46899641 3.0440001
1.695361 -0.4697668 3.0490003
1.7081901 -0.46930459 3.0460002
1.7187283 -0.46822605 3.039
1.736614 -0.46915048 3.0450001
1.7493812 -0.46868825 3.0420001
1.7626997 -0.46838015 3.0400002
1.7765836 -0.46822605 3.039
1.7916369 -0.46838015 3.0400002
1.8061056 -0.46838015 3.0400002
1.844529 -0.47454304 3.0800002
1.8670353 -0.47654596 3.0930002
1.8762807 -0.47515932 3.0840001
1.8915716 -0.47531337 3.085
1.9056367 -0.47515932 3.0840001
1.9190694 -0.47485119 3.0820003
1.932483 -0.47454304 3.0800002
1.9458776 -0.47423488 3.0780001
1.9592533 -0.47392675 3.0760002
1.9726096 -0.4736186 3.0740001
1.9859471 -0.47331044 3.072
2.0005682 -0.47331044 3.072
2.0151889 -0.47331044 3.072
2.0549183 -0.4791652 3.1100001
2.0683889 -0.47885704 3.108
2.0898838 -0.48039776 3.118
2.1459002 -0.48979619 3.1790001
2.16239 -0.49010435 3.1810002
2.185744 -0.49195319 3.1930001
2.2002516 -0.49179915 3.1920002
2.2126675 -0.49118286 3.1880002
2.2250452 -0.49056658 3.1840003
2.2289419 -0.48810142 3.1680002
2.2447281 -0.48825547 3.1690001
2.2598104 -0.48825547 3.1690001
2.2763288 -0.48856363 3.1710002
2.2935889 -0.48902586 3.1740003
2.3108771 -0.48948804 3.177
2.3289266 -0.49010435 3.1810002
2.3499613 -0.49133691 3.1890001
2.3770058 -0.49380207 3.2050002
2.3974843 -0.49488059 3.2120001
2.4375603 -0.49996498 3.2450001
2.4537606 -0.50011903 3.2460001
2.470731 -0.50042719 3.2480001
2.4877207 -0.50073534 3.2500002
2.5093503 -0.50196791 3.2580001
2.5233064 -0.50165975 3.256
2.5372438 -0.50135165 3.2540002
2.5331187 -0.49749979 3.2290001
2.5469081 -0.4971917 3.2270002
2.5575027 -0.49626723 3.2210002
2.5712354 -0.49595907 3.2190001
2.5833418 -0.49534279 3.2150002
2.5889437 -0.49349391 3.2030001
2.6033752 -0.49333987 3.2020001
2.6169791 -0.49303171 3.2
2.640435 -0.49457243 3.21
2.6416483 -0.49195319 3.1930001
2.6560128 -0.49179915 3.1920002
2.671205 -0.49179915 3.1920002
2.6855555 -0.49164507 3.1910002
2.6998961 -0.49149099 3.1900001
2.7125254 -0.49102876 3.187
2.7319732 -0.49179915 3.1920002
2.7402799 -0.49056658 3.1840003
0 -0 0
0 -0 0
0 -0 0
0 -0 0
0 -0 0
0 -0 0
0 -0 0
0 -0 0
0 -0 0
0 -0 0
0 -0 0
0 -0 0
0 -0 0
0 -0 0
0 -0 0
0 -0 0
0 -0 0
0 -0 0
0 -0 0
0 -0 0
0 -0 0
0 -0 0
0 -0 0
0 -0 0
0 -0 0
0 -0 0
0 -0 0
-0 -0 0
-0 -0 0
-0 -0 0
-0 -0 0
-0 -0 0
-0 -0 0
-0 -0 0
-0 -0 0
-0 -0 0
-1.5101461 -0.2297927 1.539
-1.5057509 -0.23024064 1.5420001
-1.5013272 -0.23068857 1.5450001
-1.4978417 -0.23128583 1.549
-1.4943182 -0.23188308 1.5530001
-1.4926716 -0.23277895 1.559
-1.4909679 -0.23367484 1.5650001
-1.489207 -0.23457071 1.5710001
-1.4902185 -0.23591453 1.58
-1.4873908 -0.23666109 1.585
-1.485449 -0.23755698 1.5910001
-1.4862369 -0.23890078 1.6
-1.5008012 -0.2424843 1.6240001
-1.5050238 -0.24442537 1.6370001
-1.510952 -0.24666506 1.6520001
-1.5076387 -0.24741162 1.6570001
-1.505183 -0.24830751 1.6630001
-1.5116736 -0.25069654 1.6790001
-1.515325 -0.25263759 1.692
-1.5152895 -0.25398141 1.7010001
-1.5125102 -0.2548773 1.7070001
-1.5087924 -0.25562385 1.7120001
-1.5181751 -0.2586101 1.7320001
-1.5160344 -0.2596553 1.7390001
-1.5233642 -0.26234293 1.7570001
-1.5296603 -0.26488125 1.774
-1.5366523 -0.26756889 1.7920001
-1.5315346 -0.26816615 1.7960001
-1.5212905 -0.26786751 1.794
-1.5237142 -0.26980856 1.807
-1.5251756 -0.27160034 1.8190001
-1.519853 -0.27219757 1.8230001
-1.5393609 -0.27727422 1.8570001
-1.5288744 -0.2769756 1.8550001
-1.5257816 -0.2780208 1.8620001
-1.5258809 -0.27966323 1.8730001
-1.5210162 -0.28040981 1.8780001
-1.5418687 -0.28593439 1.9150001
-1.5375568 -0.28683028 1.9210001
-1.552283 -0.29130965 1.9510001
-1.5572331 -0.29399729 1.9690001
-1.5565091 -0.29563972 1.9800001
-1.5564618 -0.2974315 1.9920001
-1.5625129 -0.30041775 2.0120001
-1.576092 -0.30489713 2.0420001
-0 -0 0
-1.6412721 -0.32147089 2.1530001
-1.6726907 -0.3296831 2.2080002
-1.6915413 -0.33550632 2.2470002
-1.7152568 -0.34237471 2.2930002
-1.7429938 -0.35013896 2.345
-1.7606355 -0.35596219 2.3840001
-1.7727695 -0.36074018 2.4160001
-1.7641866 -0.36133745 2.4200001
-1.7548417 -0.36178538 2.4230001
-1.7447486 -0.36208403 2.4250002
-1.7353512 -0.36253196 2.4280002
-1.7259253 -0.36297992 2.4310002
-1.7157655 -0.36327851 2.4330001
-1.7055868 -0.36357716 2.4350002
-1.6988674 -0.36462232 2.4420002
-1.6893177 -0.36507028 2.4450002
-1.6797395 -0.36551821 2.4480002
-1.6701328 -0.36596617 2.4510002
-1.6604973 -0.3664141 2.4540002
-1.6508332 -0.366862 2.457
-1.6411408 -0.36730996 2.46
-1.6287704 -0.36716065 2.4590001
-1.620355 -0.36790723 2.4640002
-1.6112393 -0.36850449 2.4680002
-1.6085663 -0.37059486 2.4820001
-1.6044735 -0.37238663 2.4940002
-1.5964348 -0.37328246 2.5
-1.5883392 -0.37417835 2.506
-1.5795574 -0.37492493 2.5110002
-1.5713525 -0.37582082 2.5170002
-1.561851 -0.37641805 2.5210001
-1.5529263 -0.3771646 2.526
-1.5439544 -0.37791118 2.5310001
-1.5343292 -0.37850845 2.5350001
-1.5240655 -0.37895638 2.5380001
-1.5131778 -0.37925503 2.5400002
-1.5022707 -0.37955362 2.5420001
-1.4901723 -0.37955362 2.5420001
-1.4786555 -0.37970296 2.5430002
-1.4665523 -0.37970296 2.5430002
-1.4544491 -0.37970296 2.5430002
-1.4417785 -0.37955362 2.5420001
-1.4302427 -0.37970296 2.5430002
-1.4192547 -0.38000157 2.5450001
-1.4076948 -0.38015085 2.546
-1.3972219 -0.38059881 2.549
-1.3878071 -0.38134539 2.5540001
-1.3778059 -0.38194263 2.5580001
-1.3672332 -0.38239059 2.5610001
-1.3545152 -0.38224128 2.5600002
-1.3412822 -0.38194263 2.5580001
-1.3296274 -0.38209194 2.559
-1.3200222 -0.38283852 2.5640001
-1.3073089 -0.38268921 2.5630002
-1.2941 -0.38239059 2.5610001
-1.2844139 -0.38313717 2.5660002
-1.2712097 -0.38283852 2.5640001
-1.2585155 -0.38268921 2.5630002
-1.2453445 -0.38239059 2.5610001
-1.2326742 -0.38224128 2.5600002
-1.2138155 -0.38015085 2.546
-1.2002822 -0.37970296 2.5430002
-1.1867772 -0.37925503 2.5400002
-1.1737634 -0.37895638 2.5380001
-1.1612263 -0.37880707 2.5370002
-1.1486987 -0.37865773 2.536
-1.1361806 -0.37850845 2.5350001
-0 -0 0
-0 -0 0
-0 -0 0
-0 -0 0
-0 -0 0
-0 -0 0
-0.86419845 -0.31101897 2.0830002
-0.85305423 -0.31057104 2.0800002
-0.84153318 -0.30997381 2.0760002
-0.83005017 -0.30937651 2.072
-0.81900114 -0.30892858 2.069
-0.80837178 -0.30862996 2.0670002
-0.79814768 -0.30848062 2.066
-0.78793323 -0.30833134 2.0650001
-0.77810502 -0.30833134 2.0650001
-0.76902097 -0.30862996 2.0670002
-0.75918323 -0.30862996 2.0670002
-0.75007057 -0.30892858 2.069
-0.74058115 -0.30907792 2.0700002
-0.73178822 -0.30952585 2.0730002
-0.72227019 -0.30967516 2.0740001
-0.71274263 -0.30982447 2.075
-0.70354432 -0.31012309 2.0770001
-0.69399297 -0.3102724 2.0780001
-0.6847614 -0.31057104 2.0800002
-0.67518622 -0.31072035 2.0810001
-0.66528189 -0.31072035 2.0810001
-0.65537757 -0.31072035 2.0810001
-0.64547324 -0.31072035 2.0810001
-0.63495803 -0.31042171 2.079
-0.62476259 -0.3102724 2.0780001
-0.61428076 -0.30997381 2.0760002
-0.60410905 -0.30982447 2.075
-0.59394693 -0.30967516 2.0740001
-0.58407587 -0.30967516 2.0740001
-0.57448173 -0.30982447 2.075
-0.5654223 -0.3102724 2.0780001
-0.5563342 -0.31072035 2.0810001
-0.54748017 -0.31131759 2.085
-0.53884596 -0.31206417 2.0900002
-0.52991098 -0.31266141 2.0940001
-0.52068973 -0.31310937 2.0970001
-0.51143986 -0.3135573 2.1000001
-0.50192261 -0.31385589 2.102
-0.49285451 -0.31445318 2.1060002
-0.48306042 -0.31460249 2.1070001
-0.47325683 -0.31475177 2.108
-0.46366352 -0.31505042 2.1100001
-0.45383611 -0.31519973 2.1110001
-0.4439992 -0.31534904 2.112
-0.43435827 -0.31564766 2.1140001
-0.42449757 -0.31579697 2.115
-0.41501927 -0.3162449 2.118
-0.40551239 -0.31669286 2.1210001
-0.39597699 -0.31714079 2.1240001
-0.38641301 -0.31758875 2.1270001
-0.37646663 -0.31773806 2.128
-0.36668295 -0.31803668 2.1300001
-0.35671276 -0.31818599 2.131
-0.34657046 -0.31818599 2.131
-0.3362703 -0.31803668 2.1300001
-0.32613274 -0.31803668 2.1300001
-0.31599519 -0.31803668 2.1300001
-0.30585763 -0.31803668 2.1300001
-0.29572013 -0.31803668 2.1300001
-0.28571662 -0.31818599 2.131
-0.27570364 -0.31833532 2.1320002
-0.26568115 -0.31848463 2.1330001
-0.25552931 -0.31848463 2.1330001
-0.2453775 -0.31848463 2.1330001
-0.23533593 -0.31863391 2.1340001
-0.2253904 -0.31893256 2.1360002
-0.21542582 -0.31923118 2.138
-0.20544219 -0.3195298 2.1400001
-0.19543955 -0.31982845 2.1420002
-0.18541783 -0.32012704 2.1440001
-0.17578572 -0.32117224 2.151
-0.16539432 -0.32087365 2.1490002
-0.15538295 -0.32132158 2.1520002
-0.14541048 -0.32191882 2.1560001
-0.13527453 -0.32221743 2.158
-0.12523544 -0.3228147 2.1620002
-0.11515825 -0.32341194 2.1660001
-0.10513981 -0.32430783 2.1720002
-0 -0 0
-0 -0 0
-0 -0 0
-0 -0 0
-0 -0 0
-0.053814549 -0.40478754 2.7110002
-0.0408816 -0.40448889 2.7090001
-0.028009018 -0.40478754 2.7110002
-0.01512297 -0.40523547 2.7140002
-0.0022075514 -0.40553409 2.7160001
0.010719011 -0.40553409 2.7160001
0.024011225 -0.41180524 2.7580001
0.037447389 -0.41523945 2.7810001
0.051193606 -0.41942018 2.809
0.064585783 -0.41956952 2.8100002
0.077710032 -0.41822571 2.8010001
0.091008641 -0.4180764 2.8000002
0.10426047 -0.41777775 2.7980001
0.11749326 -0.41747916 2.7960002
0.13070701 -0.41718051 2.7940001
0 -0 0
0 -0 0
0 -0 0
0 -0 0
0 -0 0
0 -0 0
0 -0 0
0 -0 0
0 -0 0
0 -0 0
0 -0 0
0 -0 0
0 -0 0
0 -0 0
0 -0 0
0 -0 0
0 -0 0
0.12874211 -0.14513223 0.97200006
0.13295662 -0.14468428 0.96900004
0.13657472 -0.1436391 0.96200007
0.14041962 -0.14289252 0.95700002
0.14421692 -0.14214596 0.95200002
0.14796665 -0.1413994 0.94700003
0.15182979 -0.14080215 0.94300002
0.15582061 -0.14035422 0.94000006
0.15978289 -0.13990627 0.93700004
0.16389188 -0.13960765 0.93500006
0 -0 0
0 -0 0
0 -0 0
0 -0 0
0 -0 0
0 -0 0
0.60390085 -0.43226114 2.8950002
0.62344003 -0.43629259 2.9220002
0.64498127 -0.44151855 2.9570003
0.65905488 -0.44151855 2.9570003
0.67358369 -0.44181713 2.9590001
0.68859637 -0.4424144 2.9630001
0.7029357 -0.44256374 2.9640002
0.71994555 -0.44435546 2.9760001
0.73114949 -0.44256374 2.9640002
0.74450201 -0.44211578 2.9610002
0.75808227 -0.44181713 2.9590001
0.7705996 -0.44092128 2.9530001
0.78385699 -0.44047332 2.95
0.79546309 -0.43912953 2.9410002
0.80891001 -0.43883088 2.9390001
0.82093805 -0.43778571 2.9320002
0.83603162 -0.43838295 2.9360001
0.85058421 -0.4386816 2.9380002
0.86633307 -0.43957746 2.9440002
0.88064378 -0.43972677 2.9450002
0.89496398 -0.43987608 2.9460001
0.91176224 -0.4412199 2.9550002
0.92519963 -0.44092128 2.9530001
0.938618 -0.44062266 2.9510002
0.94911194 -0.43898019 2.9400001
0.96375978 -0.43927884 2.9420002
0.97842669 -0.43957746 2.9440002
0.99311262 -0.43987608 2.9460001
1.0081594 -0.44032401 2.9490001
1.0232347 -0.44077197 2.9520001
1.0390415 -0.44151855 2.9570003
1.0545397 -0.44211578 2.9610002
1.069715 -0.44256374 2.9640002
1.0893068 -0.44480342 2.9790001
1.1045964 -0.44525135 2.9820001
1.1195393 -0.44554999 2.9840002
1.1337414 -0.44554999 2.9840002
1.147174 -0.44525135 2.9820001
1.1570826 -0.44360891 2.9710002
1.1712228 -0.44360891 2.9710002
1.1853629 -0.44360891 2.9710002
1.1869873 -0.43898019 2.9400001
1.1997545 -0.43853226 2.937
1.2124932 -0.43808433 2.9340003
0 -0 0
0 -0 0
0 -0 0
0 -0 0
0 -0 0
1.0546063 -0.35641012 2.3870001
1.0583755 -0.35387179 2.3700001
1.0597259 -0.35058689 2.348
1.0677084 -0.34954172 2.3410001
1.0779285 -0.3492431 2.3390002
1.088595 -0.34909377 2.3380001
1.0987819 -0.34879518 2.3360002
0 -0 0
0 -0 0
0 -0 0
0 -0 0
0 -0 0
0 -0 0
0 -0 0
1.5329595 -0.45017868 3.0150001
1.5493617 -0.45077592 3.0190001
1.5658025 -0.45137319 3.0230002
1.5854174 -0.45286632 3.0330002
1.6014351 -0.45331427 3.0360003
1.6169491 -0.45361286 3.0380001
1.6319453 -0.45376217 3.039
1.6474925 -0.45406082 3.0410001
1.6625124 -0.45421013 3.0420001
1.677542 -0.45435944 3.0430002
1.6942489 -0.45495671 3.0470002
1.7076292 -0.45465806 3.0450001
1.7226874 -0.4548074 3.0460002
1.736614 -0.45465806 3.0450001
1.7304037 -0.4492828 3.0090001
1.744145 -0.44913349 3.0080001
1.7578766 -0.44898418 3.0070002
1.7721883 -0.44898418 3.0070002
1.8066996 -0.45406082 3.0410001
1.8235683 -0.45465806 3.0450001
1.8398718 -0.45510599 3.0480001
1.8555954 -0.45540464 3.0500002
1.8701115 -0.45540464 3.0500002
1.882774 -0.45495671 3.0470002
1.8966533 -0.4548074 3.0460002
1.9086405 -0.45421013 3.0420001
1.9243832 -0.45450875 3.0440001
1.9395077 -0.45465806 3.0450001
1.954 -0.45465806 3.0450001
1.9691391 -0.4548074 3.0460002
1.9849386 -0.45510599 3.0480001
2.0007572 -0.45540464 3.0500002
2.0159342 -0.45555395 3.0510001
2.065727 -0.46346754 3.1040001
2.0737975 -0.46197441 3.0940001
2.1222744 -0.46944004 3.1440001
2.13112 -0.46809626 3.1350002
2.1727378 -0.47391945 3.1740003
2.1857762 -0.47347152 3.1710002
2.1946218 -0.47212771 3.1620002
2.2089722 -0.4719784 3.1610003
2.2282381 -0.47287425 3.1670001
2.2433112 -0.47287425 3.1670001
2.2583842 -0.47287425 3.1670001
2.2741754 -0.47302359 3.1680002
2.2921436 -0.47362083 3.1720002
2.3101499 -0.47421807 3.1760001
2.3274622 -0.474666 3.1790001
2.3506982 -0.47630844 3.1900001
2.3777473 -0.47869745 3.2060001
2.3974843 -0.47959334 3.2120001
2.4375603 -0.48452067 3.2450001
2.4545166 -0.48481929 3.2470002
2.4714916 -0.48511791 3.2490001
2.4953752 -0.48676038 3.2600002
2.5093503 -0.48646173 3.2580001
2.5240815 -0.48631242 3.2570002
2.5380235 -0.4860138 3.2550001
2.5472395 -0.48481929 3.2470002
2.5611145 -0.48452067 3.2450001
2.5495627 -0.47944403 3.2110002
2.562449 -0.4789961 3.2080002
2.5745029 -0.47839886 3.2040002
2.5881355 -0.47810021 3.2020001
2.6033752 -0.47810021 3.2020001
2.6177969 -0.4779509 3.2010002
2.6330318 -0.4779509 3.2010002
2.6565402 -0.47944403 3.2110002
2.6618373 -0.47765225 3.1990001
2.6762261 -0.47750297 3.1980002
2.6906052 -0.47735366 3.1970003
2.7058208 -0.47735366 3.1970003
2.71593 -0.47645777 3.1910002
2.7294054 -0.47615913 3.1890001
2.7428617 -0.47586051 3.187
2.7614918 -0.47645777 3.1910002
0 -0 0
0 -0 0
0 -0 0
0 -0 0
0 -0 0
0 -0 0
0 -0 0
0 -0 0
0 -0 0
0 -0 0
0 -0 0
0 -0 0
0 -0 0
0 -0 0
0 -0 0
0 -0 0
0 -0 0
0 -0 0
0 -0 0
0 -0 0
0 -0 0
0 -0 0
0 -0 0
0 -0 0
0 -0 0
0 -0 0
-0 -0 0
-0 -0 0
-0 -0 0
-0 -0 0
-0 -0 0
-0 -0 0
-0 -0 0
-0 -0 0
-0 -0 0
-1.5101461 -0.22246796 1.539
-1.5067275 -0.22304618 1.5430001
-1.502299 -0.22347984 1.5460001
-1.4988087 -0.22405805 1.5500001
-1.4952804 -0.22463626 1.554
-1.4936291 -0.22550358 1.5600001
-1.4919206 -0.22637092 1.5660001
-1.4901549 -0.22723822 1.572
-1.4911618 -0.22853921 1.5810001
-1.4883292 -0.22926198 1.5860001
-1.485449 -0.22998475 1.5910001
-1.4871658 -0.23143028 1.6010001
-1.4841666 -0.23215304 1.6060001
-1.4893944 -0.2341768 1.6200001
-1.4835134 -0.23446591 1.6220001
-1.505819 -0.23923618 1.6550001
-1.5042778 -0.24024804 1.6620001
-1.515275 -0.24328367 1.6830001
-1.5162207 -0.24472921 1.6930001
-1.5152895 -0.24588564 1.7010001
-1.5125102 -0.24675296 1.7070001
-1.5096736 -0.24762028 1.7130001
-1.5102862 -0.24906582 1.723
-1.5264958 -0.2531133 1.751
-1.5250982 -0.25426975 1.7590001
-1.5193132 -0.2547034 1.7620001
-1.5400825 -0.25961822 1.7960001
-1.5349455 -0.26019645 1.8000001
-1.5238345 -0.25976276 1.7970001
-1.5254008 -0.26149744 1.8090001
-1.526014 -0.26308751 1.8200001
-1.5248553 -0.2643885 1.8290001
-1.5368741 -0.26800233 1.8540001
-1.5247535 -0.26742414 1.8500001
-1.5225039 -0.26858056 1.858
-1.5266956 -0.27089339 1.8740001
-1.5234458 -0.27190527 1.881
-1.5161037 -0.27219439 1.8830001
-1.5455607 -0.27913296 1.9310001
-1.5355747 -0.27898839 1.9300001
-1.5588149 -0.28491509 1.9710001
-1.5604397 -0.28693885 1.9850001
-1.5564618 -0.28795072 1.9920001
-1.5609597 -0.29055268 2.01
-1.5784075 -0.29561207 2.0450001
-1.5985907 -0.30124965 2.0840001
-1.6405098 -0.31107932 2.1520002
-1.6446609 -0.31382582 2.171
-1.6907884 -0.32466733 2.2460001
-1.7167528 -0.33175045 2.2950001
-1.7459671 -0.33955637 2.3490002
-1.7635895 -0.34519392 2.388
-1.7764381 -0.3499642 2.421
-1.7678317 -0.35054243 2.4250002
