# .PCD v0.7 - Point Cloud Data file format
VERSION 0.7
FIELDS x y z
SIZE 4 4 4
TYPE F F F
COUNT 1 1 1
WIDTH 1751
HEIGHT 1
VIEWPOINT 0 0 0 1 0 0 0
POINTS 1751
DATA ascii
1.2908792 -0.64496225 2.3620002
1.2988133 -0.6433239 2.3560002
1.3089143 -0.6427778 2.3540001
1.3212396 -0.6433239 2.3560002
1.3301905 -0.64223164 2.352
1.3391033 -0.64113945 2.348
1.3479781 -0.64004719 2.3440001
1.3573947 -0.63922805 2.3410001
1.3656136 -0.63786274 2.3360002
1.3749635 -0.6370436 2.3330002
1.364085 -0.62694043 2.296
1.372617 -0.62584817 2.2920001
1.3823184 -0.62530214 2.2900002
1.3913924 -0.62448293 2.2870002
1.4059559 -0.62612128 2.2930002
1.4218125 -0.62830573 2.3010001
1.4234239 -0.62420982 2.286
1.4280295 -0.62147927 2.276
1.4338045 -0.61929482 2.2680001
1.4420512 -0.61820263 2.2640002
1.4528264 -0.61820263 2.2640002
1.4603693 -0.61683726 2.2590001
1.4711208 -0.61683726 2.2590001
1.4792484 -0.61574507 2.2550001
1.4708192 -0.60782641 2.2260001
1.4794172 -0.60700721 2.223
1.4873163 -0.60591501 2.2190001
1.5005776 -0.60700721 2.223
1.507079 -0.60536885 2.217
1.5135235 -0.60373056 2.2110002
1.527493 -0.6050958 2.2160001
1.5317932 -0.6026383 2.207
1.5255256 -0.59608489 2.1830001
1.5323975 -0.59471965 2.1780002
1.5378051 -0.59280819 2.171
1.5445722 -0.59144294 2.1660001
1.5527276 -0.5906238 2.1630001
1.5594091 -0.58925843 2.158
1.5689524 -0.58898538 2.1570001
1.5770222 -0.58816624 2.154
1.587274 -0.58816624 2.154
1.5997508 -0.58898538 2.1570001
1.6107631 -0.58925843 2.158
1.6315506 -0.5930813 2.1720002
1.630549 -0.58898538 2.1570001
1.6430969 -0.58980459 2.1600001
1.6564391 -0.59089679 2.164
1.6682791 -0.59144294 2.1660001
1.6832377 -0.5930813 2.1720002
1.7099495 -0.5988155 2.1930001
1.7337232 -0.60345745 2.21
1.774233 -0.61383367 2.2480001
1.8746551 -0.6446892 2.3610001
1.9258305 -0.65834206 2.411
1.9975699 -0.67882138 2.4860001
2.0368838 -0.6881054 2.5200002
2.0724556 -0.696024 2.549
2.0878587 -0.69711632 2.5530002
2.1345572 -0.70858467 2.595
2.1469078 -0.70858467 2.595
2.1917098 -0.71923393 2.6340001
2.2067566 -0.72005308 2.6370001
2.1940591 -0.71186137 2.6070001
0 -0 0
0 -0 0
0 -0 0
0 -0 0
0 -0 0
0 -0 0
0 -0 0
0 -0 0
0 -0 0
0 -0 0
0 -0 0
0 -0 0
0 -0 0
0 -0 0
0 -0 0
0 -0 0
0 -0 0
0 -0 0
0 -0 0
0 -0 0
0 -0 0
0 -0 0
0 -0 0
0 -0 0
0 -0 0
0 -0 0
0 -0 0
0 -0 0
0 -0 0
0 -0 0
0 -0 0
-0 -0 0
-0 -0 0
-0 -0 0
-0 -0 0
-0 -0 0
-0 -0 0
-0 -0 0
-0 -0 0
-0 -0 0
-0 -0 0
-0 -0 0
-0 -0 0
-0 -0 0
-2.838531 -0.79147989 2.95
-2.8206611 -0.7904067 2.9460001
-2.8056872 -0.79013842 2.9450002
-2.7907228 -0.78987014 2.9440002
-2.7729383 -0.7887969 2.9400001
-2.7908518 -0.79791909 2.9740002
-2.8009725 -0.80489486 3.0000002
-2.8349969 -0.81884634 3.052
-2.8722229 -0.83387101 3.108
-2.9199483 -0.85211533 3.1760001
-2.9542222 -0.86660349 3.2300003
-2.9670548 -0.87492067 3.2610002
-2.992264 -0.88699412 3.3060002
-2.9765294 -0.88699412 3.3060002
-2.9948268 -0.89718944 3.3440001
-2.9869287 -0.89960414 3.3530002
-3.0002105 -0.90845799 3.3860002
-2.989383 -0.9100678 3.3920002
-3.0091772 -0.92106795 3.4330001
-2.9989407 -0.92294604 3.4400001
-3.0007761 -0.92858034 3.4610002
-2.9877527 -0.92965353 3.4650002
-2.9704039 -0.92938524 3.4640002
-2.9564755 -0.93019015 3.4670002
-2.9391265 -0.92992181 3.4660001
-2.9226305 -0.92992181 3.4660001
-2.9312885 -0.93797076 3.4960001
-2.9171505 -0.93877566 3.4990001
-2.923708 -0.94628805 3.5270002
-2.9176362 -0.94977593 3.5400002
-2.946676 -0.9648006 3.5960002
-2.9295611 -0.9648006 3.5960002
-2.9140663 -0.96533728 3.5980003
-2.8985519 -0.96587378 3.6000001
-2.883019 -0.9664104 3.6020002
-2.8611019 -0.9648006 3.5960002
-2.851105 -0.9672153 3.6050003
-2.8363054 -0.9680202 3.6080003
-2.8214777 -0.96882504 3.6110001
-2.8306956 -0.97794724 3.6450002
-2.8141193 -0.97821552 3.6460001
-2.828217 -0.98921579 3.6870003
-2.8106689 -0.98921579 3.6870003
-2.7953935 -0.99002063 3.6900001
-2.8049321 -0.99967939 3.7260001
-2.7879467 -0.99994773 3.7270002
-2.7947366 -1.0088016 3.7600002
-2.7923503 -1.0144358 3.7810001
-2.8059065 -1.0259726 3.8240001
-2.8197827 -1.0377778 3.8680003
-2.8180311 -1.0439487 3.8910003
-2.8153405 -1.0498512 3.9130001
-2.8295944 -1.0621929 3.9590001
-2.8107519 -1.0621929 3.9590001
-2.8088343 -1.0686321 3.9830003
-2.8059876 -1.0748029 4.006
-2.7869217 -1.0748029 4.006
-2.7678554 -1.0748029 4.006
-2.7487891 -1.0748029 4.006
-2.7460771 -1.0812421 4.0300002
-2.7268965 -1.0812421 4.0300002
-2.7245133 -1.0879495 4.0550003
-2.721225 -1.0943886 4.079
-2.7349298 -1.1078036 4.1290002
-2.7488165 -1.1214869 4.1800003
-2.7465494 -1.1287309 4.2070003
-2.7433767 -1.1357067 4.2330003
-2.7232301 -1.1357067 4.2330003
-2.6864808 -1.1287309 4.2070003
-2.6664579 -1.1287309 4.2070003
-2.6294503 -1.1214869 4.1800003
-2.5939488 -1.1147794 4.1550002
-2.5741735 -1.1147794 4.1550002
-2.5697675 -1.1214869 4.1800003
-2.5498734 -1.1214869 4.1800003
-2.5299788 -1.1214869 4.1800003
-2.5100844 -1.1214869 4.1800003
-2.4901903 -1.1214869 4.1800003
-2.4702959 -1.1214869 4.1800003
-2.4504013 -1.1214869 4.1800003
-2.4305072 -1.1214869 4.1800003
-2.4261837 -1.1287309 4.2070003
-2.4061608 -1.1287309 4.2070003
-2.4008846 -1.1357067 4.2330003
-2.3959236 -1.1429507 4.2600002
-2.3756485 -1.1429507 4.2600002
-2.3852301 -1.1574388 4.3140001
-2.3646982 -1.1574388 4.3140001
-2.3441658 -1.1574388 4.3140001
-2.3387153 -1.1649511 4.342
-2.3180499 -1.1649511 4.342
-2.2973845 -1.1649511 4.342
-2.2767191 -1.1649511 4.342
-2.2711222 -1.1727318 4.3710003
-2.2503188 -1.1727318 4.3710003
-2.2147231 -1.1649511 4.342
-2.1940579 -1.1649511 4.342
-2.1593771 -1.1574388 4.3140001
-2.138845 -1.1574388 4.3140001
-2.1183128 -1.1574388 4.3140001
-2.0977807 -1.1574388 4.3140001
-2.0772486 -1.1574388 4.3140001
-2.0700655 -1.1649511 4.342
-2.0494001 -1.1649511 4.342
-2.0422847 -1.1727318 4.3710003
-2.0214813 -1.1727318 4.3710003
-2.013494 -1.1802441 4.3990002
-2.005693 -1.1880248 4.428
-1.9976162 -1.1958054 4.4570003
-1.9764035 -1.1958054 4.4570003
-1.9683511 -1.2038543 4.487
-1.9600132 -1.2119033 4.5170002
-1.9385149 -1.2119033 4.5170002
-1.9433296 -1.2285378 4.579
-1.934545 -1.236855 4.6100001
-1.9126042 -1.236855 4.6100001
-1.9037873 -1.2454406 4.6420002
-1.8946656 -1.2540262 4.6740003
-1.8724202 -1.2540262 4.6740003
-1.8632376 -1.26288 4.7070003
-1.8537407 -1.2717339 4.7400002
-1.8311812 -1.2717339 4.7400002
-1.834568 -1.2899781 4.8080001
-1.8116847 -1.2899781 4.8080001
-1.8014511 -1.2991002 4.842
-1.7784059 -1.2991002 4.842
-1.7553608 -1.2991002 4.842
-1.7448379 -1.3084908 4.8770003
-1.7470428 -1.3278083 4.9490004
-1.7363737 -1.3377352 4.9860001
-1.7253525 -1.3476622 5.0230002
-1.7143177 -1.3578576 5.0610003
-1.7029213 -1.368053 5.0990005
-1.6914922 -1.3785166 5.138
-1.6670383 -1.3785166 5.138
-1.6425844 -1.3785166 5.138
-1.6304131 -1.3889802 5.177
-1.5936767 -1.3785166 5.138
-1.5692229 -1.3785166 5.138
-1.544769 -1.3785166 5.138
-1.4975312 -1.3578576 5.0610003
-1.4734439 -1.3578576 5.0610003
-1.4493566 -1.3578576 5.0610003
-0 -0 0
-0 -0 0
-0 -0 0
-0 -0 0
-0 -0 0
-0.68992907 -0.7179662 2.6760001
-0.67592758 -0.71662474 2.6710002
-0.65353143 -0.70616108 2.6320002
-0.64051753 -0.70562446 2.6300001
-0.62752265 -0.70508784 2.628
-0.61454695 -0.70455128 2.6260002
-0.60204875 -0.70455128 2.6260002
-0.58977497 -0.70481956 2.6270001
-0.57749176 -0.70508784 2.628
-0.56627393 -0.70669764 2.6340001
-0.55562973 -0.70911235 2.6430001
-0.54572165 -0.71260023 2.6560001
-0.53147501 -0.71045387 2.6480002
-0.5194599 -0.71125871 2.651
-0.50779867 -0.71260023 2.6560001
-0.49664912 -0.71474659 2.664
-0.48524174 -0.71662474 2.6710002
-0.47376773 -0.71850282 2.6780002
-0.46618658 -0.72655177 2.7080002
-0.45380026 -0.72735667 2.7110002
-0.44122273 -0.72789323 2.7130001
-0.42846838 -0.72816157 2.7140002
-0.41539818 -0.72789323 2.7130001
-0.4021892 -0.72735667 2.7110002
-0.38914281 -0.72708833 2.71
-0.37582833 -0.72628343 2.707
-0.35771564 -0.71581984 2.6680002
-0.3443709 -0.71447831 2.6630001
-0.33094925 -0.71286851 2.6570001
-0.31758472 -0.71125871 2.651
-0.30381712 -0.70857573 2.641
-0.29069614 -0.70723426 2.6360002
-0.27762273 -0.70589274 2.631
-0.26469767 -0.70481956 2.6270001
-0.25190669 -0.70401466 2.6240001
-0.2389618 -0.7026732 2.6190002
-0 -0 0
-0 -0 0
-0 -0 0
-0 -0 0
-0 -0 0
-0 -0 0
-0 -0 0
-0 -0 0
-0 -0 0
-0.060495432 -0.3718614 1.386
-0.053548899 -0.36944675 1.3770001
-0.046756286 -0.36756867 1.3700001
-0.039942198 -0.36488566 1.36
-0.033370961 -0.36381248 1.3560001
-0.026817946 -0.36247098 1.3510001
-0.020327618 -0.3613978 1.3470001
-0.013875363 -0.36032459 1.3430001
-0.0074611851 -0.35925141 1.3390001
-0.001086707 -0.35871479 1.337
0.005268733 -0.3581782 1.335
0.011613842 -0.35790992 1.3340001
0.01794943 -0.35764161 1.3330001
0.024293726 -0.35764161 1.3330001
0.030638024 -0.35764161 1.3330001
0.036982317 -0.35764161 1.3330001
0.043326613 -0.35764161 1.3330001
0.049670909 -0.35764161 1.3330001
0.055973183 -0.3573733 1.332
0.062312718 -0.3573733 1.332
0.06865225 -0.3573733 1.332
0.074991785 -0.3573733 1.332
0.081331328 -0.3573733 1.332
0.087670863 -0.3573733 1.332
0.094010398 -0.3573733 1.332
0.10034994 -0.3573733 1.332
0.10676957 -0.35764161 1.3330001
0.11311387 -0.35764161 1.3330001
0.11945816 -0.35764161 1.3330001
0.12580246 -0.35764161 1.3330001
0.1322459 -0.35790992 1.3340001
0.13869883 -0.3581782 1.335
0.14505264 -0.3581782 1.335
0.15140647 -0.3581782 1.335
0.15776028 -0.3581782 1.335
0.16411409 -0.3581782 1.335
0.17046791 -0.3581782 1.335
0.17682172 -0.3581782 1.335
0.18317553 -0.3581782 1.335
0.18952934 -0.3581782 1.335
0.19588317 -0.3581782 1.335
0.20223697 -0.3581782 1.335
0.20874704 -0.35844651 1.3360001
0.21510562 -0.35844651 1.3360001
0.22162995 -0.35871479 1.337
0.22816381 -0.3589831 1.3380001
0.23470721 -0.35925141 1.3390001
0.24108006 -0.35925141 1.3390001
0.24763769 -0.35951969 1.34
0.2542049 -0.359788 1.3410001
0.26058728 -0.359788 1.3410001
0.26696962 -0.359788 1.3410001
0.273352 -0.359788 1.3410001
0.27973437 -0.359788 1.3410001
0.28611672 -0.359788 1.3410001
0.2924991 -0.359788 1.3410001
0.2988815 -0.359788 1.3410001
0.30526385 -0.359788 1.3410001
0.31187859 -0.36005628 1.342
0.31826574 -0.36005628 1.342
0.32489479 -0.36032459 1.3430001
0.33153337 -0.3605929 1.3440001
0.33843288 -0.36112949 1.3460001
0.34509528 -0.3613978 1.3470001
0.3520281 -0.36193439 1.3490001
0.35897994 -0.36247098 1.3510001
0.36595088 -0.36300758 1.353
0.37294081 -0.36354417 1.355
0.37994984 -0.36408079 1.3570001
0.38697785 -0.36461738 1.3590001
0.39373535 -0.36488566 1.36
0.40079677 -0.36542228 1.3620001
0 -0 0
0 -0 0
0 -0 0
0 -0 0
0 -0 0
0 -0 0
0 -0 0
1.1130269 -0.89853096 3.3490002
1.128629 -0.89826262 3.348
1.1336238 -0.88967711 3.3160002
1.1372741 -0.88028663 3.2810001
1.1388345 -0.86955476 3.2410002
1.1517668 -0.86767668 3.2340002
1.1577752 -0.86070091 3.2080002
1.1602452 -0.85131043 3.1730001
1.1634933 -0.84272486 3.141
1.1683127 -0.83548081 3.1140001
1.161477 -0.82018787 3.0570002
1.1487128 -0.80113864 2.9860001
1.1325467 -0.78021145 2.9080002
1.115638 -0.75928414 2.8300002
1.1015776 -0.74077153 2.7610002
1.0941277 -0.72708833 2.71
1.089869 -0.71581984 2.6680002
1.0967814 -0.71206361 2.654
1.0906023 -0.69999021 2.6090002
1.1055561 -0.70159996 2.615
1.1047485 -0.69328278 2.5840001
1.1092656 -0.68845344 2.5660002
1.1223522 -0.68899 2.5680001
1.1266218 -0.68416065 2.5500002
1.1374186 -0.68335575 2.5470002
1.1504434 -0.68389231 2.549
1.1575582 -0.68094105 2.5380001
1.1673335 -0.67959958 2.5330002
1.1775265 -0.67852634 2.529
1.1876816 -0.67745316 2.5250001
1.1982738 -0.67664826 2.5220001
1.1670871 -0.6525014 2.4320002
1.1694536 -0.64740378 2.4130001
1.1794699 -0.64659888 2.4100001
1.1874809 -0.64472079 2.4030001
1.1964231 -0.64337927 2.398
0 -0 0
1.2090805 -0.6380133 2.378
1.2198851 -0.63774502 2.3770001
1.23327 -0.6388182 2.381
1.2461704 -0.63962311 2.3840001
1.2580444 -0.63989145 2.3850002
1.2683311 -0.63935483 2.3830001
1.2769877 -0.6380133 2.378
1.287222 -0.63747674 2.3760002
1.2936118 -0.63506204 2.3670001
1.2993646 -0.63237906 2.3570001
1.3105824 -0.63237906 2.3570001
1.3206787 -0.63184243 2.355
1.329625 -0.63076925 2.3510001
1.338533 -0.62969607 2.3470001
1.3479781 -0.62889117 2.3440001
1.356815 -0.62781799 2.3400002
1.3492448 -0.61923242 2.3080001
1.3555148 -0.61708605 2.3000002
1.3634908 -0.61574453 2.2950001
1.3720182 -0.61467135 2.2910001
1.3817147 -0.61413473 2.289
1.3907839 -0.61332983 2.286
1.4065691 -0.61547625 2.2940001
1.4168693 -0.61520797 2.2930002
1.4234239 -0.61332983 2.286
1.4274021 -0.61037856 2.2750001
1.4375978 -0.61011028 2.2740002
1.4414141 -0.60715896 2.263
1.4515429 -0.60689068 2.2620001
1.4623088 -0.60689068 2.2620001
1.4496304 -0.59723198 2.2260001
1.4589128 -0.59669542 2.2240002
1.4694979 -0.59669542 2.2240002
1.4780864 -0.59589052 2.2210002
1.4859757 -0.59481728 2.217
1.4931524 -0.59347582 2.2120001
1.5036802 -0.59347582 2.2120001
1.5073625 -0.59079283 2.2020001
1.5075032 -0.58676833 2.187
1.5116656 -0.58435369 2.1780002
1.5206338 -0.58381706 2.1760001
1.5338047 -0.58489025 2.1800001
1.5378051 -0.58247554 2.171
1.5445722 -0.58113408 2.1660001
1.5520098 -0.5800609 2.1620002
1.5586865 -0.57871938 2.1570001
1.5682251 -0.5784511 2.1560001
1.5748258 -0.57710958 2.151
1.5850632 -0.57710958 2.151
1.5930759 -0.57630467 2.148
1.6040455 -0.57657301 2.1490002
1.6150247 -0.57684129 2.1500001
1.6290371 -0.57818282 2.1550002
1.6415756 -0.57898766 2.158
1.6541427 -0.57979256 2.161
1.6667385 -0.58059746 2.164
1.6816877 -0.58220726 2.1700001
1.7091697 -0.58810985 2.1920002
1.7305852 -0.59186602 2.2060001
1.7718651 -0.60232967 2.2450001
0 -0 0
1.9258305 -0.64686716 2.411
1.9951594 -0.6661846 2.483
2.0344589 -0.6753068 2.5170002
2.0708299 -0.68335575 2.5470002
2.0894942 -0.68550211 2.5550001
2.1090577 -0.68791682 2.5640001
2.1452534 -0.69569743 2.5930002
2.1675794 -0.69891697 2.605
2.1816514 -0.69945359 2.6070001
2.1780686 -0.69435591 2.5880001
0 -0 0
0 -0 0
0 -0 0
0 -0 0
0 -0 0
0 -0 0
0 -0 0
0 -0 0
0 -0 0
0 -0 0
0 -0 0
0 -0 0
0 -0 0
0 -0 0
0 -0 0
0 -0 0
0 -0 0
0 -0 0
0 -0 0
0 -0 0
0 -0 0
0 -0 0
0 -0 0
0 -0 0
0 -0 0
0 -0 0
0 -0 0
0 -0 0
0 -0 0
0 -0 0
0 -0 0
-0 -0 0
-0 -0 0
-0 -0 0
-0 -0 0
-0 -0 0
-0 -0 0
-0 -0 0
-0 -0 0
-0 -0 0
-0 -0 0
-0 -0 0
-0 -0 0
-0 -0 0
-0 -0 0
-0 -0 0
-0 -0 0
-0 -0 0
-2.7823701 -0.77743965 2.95
-0 -0 0
-0 -0 0
-0 -0 0
-0 -0 0
-2.9217873 -0.83752656 3.1780002
-2.9743438 -0.85702842 3.2520001
-2.966145 -0.85913676 3.2600002
-2.992264 -0.87125957 3.3060002
-2.9783299 -0.87178659 3.3080001
-2.9912446 -0.88021988 3.3400002
-2.9887104 -0.88417298 3.3550003
-2.9966664 -0.89128852 3.3820002
-2.989383 -0.89392388 3.3920002
-3.011807 -0.9055196 3.4360001
-2.9971974 -0.90604669 3.4380002
-3.005111 -0.91342574 3.4660001
-2.9929264 -0.91474348 3.4710002
-2.9678314 -0.91210806 3.4610002
-2.9556227 -0.91342574 3.4660001
-2.9399745 -0.91368932 3.4670002
-2.9352791 -0.91737884 3.4810002
-2.9287732 -0.92054135 3.4930003
-2.9154832 -0.92159545 3.4970002
-2.9203923 -0.92844748 3.5230002
-2.9225814 -0.93450886 3.5460002
-2.8999684 -0.9326641 3.5390003
-2.8945303 -0.93635362 3.5530002
-2.8776202 -0.93635362 3.5530002
-2.8703716 -0.93951607 3.5650001
-2.8534043 -0.93951607 3.5650001
-2.834846 -0.93898904 3.5630002
-2.8226333 -0.94057029 3.5690002
-2.8017163 -0.93925256 3.5640001
-2.7863166 -0.93977964 3.5660002
-2.7996318 -0.95005769 3.6050003
-2.782474 -0.95005769 3.6050003
-2.7959995 -0.96059924 3.6450002
-2.7778893 -0.96033573 3.6440003
-2.7613034 -0.96059924 3.6450002
-2.7718091 -0.97035015 3.6820002
-2.7505448 -0.96903247 3.6770003
-2.764262 -0.98010105 3.7190001
-2.7768414 -0.99090618 3.7600002
-2.7743547 -0.99644047 3.7810001
-2.7877064 -1.0077727 3.8240001
-2.78544 -1.0135705 3.8460002
-2.782964 -1.0193684 3.8680003
-2.7967169 -1.0312276 3.9130001
-2.7780936 -1.0312276 3.9130001
-2.7756896 -1.037289 3.9360001
-2.7730668 -1.0433505 3.9590001
-2.7542245 -1.0433505 3.9590001
-2.7519641 -1.0496753 3.9830003
-2.7330074 -1.0496753 3.9830003
-2.729723 -1.0557367 4.006
-2.7106569 -1.0557367 4.006
-2.707716 -1.0620617 4.0300002
-2.705214 -1.0686502 4.0550003
-2.7183707 -1.0815636 4.1040001
-2.7152781 -1.0881521 4.1290002
-2.6956267 -1.0881521 4.1290002
-2.6928256 -1.0950041 4.1550002
-2.6730502 -1.0950041 4.1550002
-2.6532748 -1.0950041 4.1550002
-2.6334994 -1.0950041 4.1550002
-2.613724 -1.0950041 4.1550002
-2.5939488 -1.0950041 4.1550002
-2.5741735 -1.0950041 4.1550002
-2.5543978 -1.0950041 4.1550002
-2.5346227 -1.0950041 4.1550002
-2.5148473 -1.0950041 4.1550002
-2.4950719 -1.0950041 4.1550002
-2.4752967 -1.0950041 4.1550002
-2.4555213 -1.0950041 4.1550002
-2.4357457 -1.0950041 4.1550002
-2.4305072 -1.1015925 4.1800003
-2.4261837 -1.108708 4.2070003
-2.4061608 -1.108708 4.2070003
-2.4008846 -1.1155601 4.2330003
-2.3959236 -1.1226757 4.2600002
-2.3907053 -1.1297911 4.2870002
-2.3852301 -1.1369067 4.3140001
-2.3646982 -1.1369067 4.3140001
-2.3441658 -1.1369067 4.3140001
-2.3387153 -1.1442858 4.342
-2.3180499 -1.1442858 4.342
-2.2973845 -1.1442858 4.342
-2.2767191 -1.1442858 4.342
-2.2560539 -1.1442858 4.342
-2.2503188 -1.1519284 4.3710003
-2.2147231 -1.1442858 4.342
-2.1940579 -1.1442858 4.342
-2.1733923 -1.1442858 4.342
-2.138845 -1.1369067 4.3140001
-2.1183128 -1.1369067 4.3140001
-2.0977807 -1.1369067 4.3140001
-2.0772486 -1.1369067 4.3140001
-2.0700655 -1.1442858 4.342
-2.0494001 -1.1442858 4.342
-2.0422847 -1.1519284 4.3710003
-2.0214813 -1.1519284 4.3710003
-2.013494 -1.1593075 4.3990002
-2.005693 -1.1669501 4.428
-1.9976162 -1.1745929 4.4570003
-1.9764035 -1.1745929 4.4570003
-1.9683511 -1.1824989 4.487
-1.9600132 -1.1904051 4.5170002
-1.9518191 -1.1985749 4.5480003
-1.9433296 -1.2067444 4.579
-1.934545 -1.2149142 4.6100001
-1.9126042 -1.2149142 4.6100001
-1.9037873 -1.2233474 4.6420002
-1.8946656 -1.2317808 4.6740003
-1.8724202 -1.2317808 4.6740003
-1.8632376 -1.2404776 4.7070003
-1.8537407 -1.2491742 4.7400002
-1.8439299 -1.257871 4.7730002
-1.834568 -1.2670949 4.8080001
-1.8116847 -1.2670949 4.8080001
-1.8014511 -1.2760552 4.842
-1.7912611 -1.2852792 4.8770003
-1.7680495 -1.2852792 4.8770003
-1.7448379 -1.2852792 4.8770003
-1.7343343 -1.2947664 4.9130001
-1.7363737 -1.3140048 4.9860001
-1.7253525 -1.3237557 5.0230002
-1.7143177 -1.3337703 5.0610003
-1.7029213 -1.3437848 5.0990005
-1.6786531 -1.3437848 5.0990005
-1.6543847 -1.3437848 5.0990005
-1.6301166 -1.3437848 5.0990005
-1.6058484 -1.3437848 5.0990005
-1.5936767 -1.3540627 5.138
-1.5573119 -1.3437848 5.0990005
-1.5330436 -1.3437848 5.0990005
-1.4975312 -1.3337703 5.0610003
-1.4623806 -1.3237557 5.0230002
-1.4493566 -1.3337703 5.0610003
-0 -0 0
-0 -0 0
-0 -0 0
-0 -0 0
-0 -0 0
-0.69096035 -0.70628417 2.6800001
-0.67592758 -0.70391238 2.6710002
-0.65377969 -0.69389784 2.6330001
-0.64076108 -0.69337076 2.631
-0.62752265 -0.69258016 2.628
-0.61478096 -0.69231665 2.6270001
-0.60250723 -0.69258016 2.628
-0.5899995 -0.69258016 2.628
-0.57815099 -0.69337076 2.631
-0.56670392 -0.6946885 2.6360002
-0.55668086 -0.697851 2.6480002
-0.54633808 -0.70074987 2.6590002
-0.53468633 -0.70206755 2.664
-0.52259511 -0.70285815 2.6670001
-0.5108577 -0.70417589 2.6720002
-0.49814057 -0.70417589 2.6720002
-0.48596844 -0.70496655 2.6750002
-0.47447535 -0.70681131 2.6820002
-0.46601442 -0.71339971 2.707
-0.45363286 -0.71419036 2.71
-0.44106013 -0.71471745 2.7120001
-0.42831048 -0.71498096 2.7130001
-0.41524509 -0.71471745 2.7120001
-0.40204081 -0.71419036 2.71
-0.38885564 -0.71366328 2.7080002
-0.37582833 -0.71339971 2.707
-0.35771564 -0.70312178 2.6680002
-0.34424159 -0.70154053 2.6620002
-0.3308247 -0.69995928 2.6560001
-0.31638673 -0.69600618 2.641
-0.30358708 -0.69547909 2.6390002
-0.29047558 -0.69416142 2.6340001
-0.27709514 -0.69205308 2.6260002
-0.26449618 -0.69178957 2.6250002
-0.25171471 -0.69099897 2.6220002
-0.23877931 -0.68968123 2.6170001
-0.22615094 -0.68915415 2.615
-0 -0 0
-0 -0 0
-0 -0 0
-0 -0 0
-0 -0 0
-0 -0 0
-0 -0 0
-0 -0 0
-0 -0 0
-0.053393342 -0.36183888 1.373
-0.046619769 -0.35999411 1.3660001
-0.039942198 -0.35841286 1.36
-0.033346351 -0.35709518 1.355
-0.026817946 -0.35604101 1.3510001
-0.020327618 -0.35498688 1.3470001
-0.013875363 -0.35393271 1.3430001
-0.0074667567 -0.35314208 1.34
-0.0010875198 -0.35261503 1.3380001
0.00527268 -0.35208794 1.3360001
0.011622547 -0.3518244 1.335
0.017962897 -0.35156089 1.3340001
0.024293726 -0.35129732 1.3330001
0.030638024 -0.35129732 1.3330001
0.036982317 -0.35129732 1.3330001
0.043326613 -0.35129732 1.3330001
0.049670909 -0.35129732 1.3330001
0.056015205 -0.35129732 1.3330001
0.062312718 -0.35103378 1.332
0.06865225 -0.35103378 1.332
0.074991785 -0.35103378 1.332
0.081331328 -0.35103378 1.332
0.087670863 -0.35103378 1.332
0.094010398 -0.35103378 1.332
0.10042528 -0.35129732 1.3330001
0.10684967 -0.35156089 1.3340001
0.11319872 -0.35156089 1.3340001
0.11954778 -0.35156089 1.3340001
0.12589684 -0.35156089 1.3340001
0.13234502 -0.3518244 1.335
0.13869883 -0.3518244 1.335
0.14505264 -0.3518244 1.335
0.15140647 -0.3518244 1.335
0.15776028 -0.3518244 1.335
0.16411409 -0.3518244 1.335
0.17046791 -0.3518244 1.335
0.17695418 -0.35208794 1.3360001
0.18331274 -0.35208794 1.3360001
0.18967132 -0.35208794 1.3360001
0.1960299 -0.35208794 1.3360001
0.20238847 -0.35208794 1.3360001
0.20874704 -0.35208794 1.3360001
0.21526663 -0.35235146 1.337
0.22162995 -0.35235146 1.337
0.22816381 -0.35261503 1.3380001
0.23470721 -0.35287857 1.3390001
0.24108006 -0.35287857 1.3390001
0.24763769 -0.35314208 1.34
0.2542049 -0.35340565 1.3410001
0.26058728 -0.35340565 1.3410001
0.26696962 -0.35340565 1.3410001
0.273352 -0.35340565 1.3410001
0.27973437 -0.35340565 1.3410001
0.28611672 -0.35340565 1.3410001
0.2924991 -0.35340565 1.3410001
0.2988815 -0.35340565 1.3410001
0.30526385 -0.35340565 1.3410001
0.31187859 -0.35366917 1.342
0.3185029 -0.35393271 1.3430001
0.32513672 -0.35419625 1.3440001
0.33178002 -0.35445979 1.345
0.33843288 -0.35472333 1.3460001
0.34509528 -0.35498688 1.3470001
0.35176712 -0.35525042 1.348
0.35871422 -0.35577747 1.35
0.36568043 -0.35630459 1.3520001
0.37266558 -0.35683164 1.3540001
0.37966985 -0.35735872 1.3560001
0.38669309 -0.35788578 1.358
0.39315635 -0.35788578 1.358
0.40020818 -0.35841286 1.36
0 -0 0
0 -0 0
0 -0 0
0 -0 0
0 -0 0
0 -0 0
0 -0 0
1.1133591 -0.88285524 3.3500001
1.1289661 -0.88259172 3.3490002
1.1336238 -0.87389493 3.3160002
1.1334612 -0.86177218 3.2700002
1.1518357 -0.86388046 3.2780001
1.1467807 -0.8485952 3.2200003
1.158136 -0.84569627 3.2090001
1.1635362 -0.83858073 3.1820002
1.1753467 -0.83620888 3.1730001
1.1683127 -0.82066005 3.1140001
1.161477 -0.80563837 3.0570002
1.1487128 -0.78692704 2.9860001
1.1317676 -0.76584399 2.9060001
1.1148496 -0.74528795 2.8280001
1.1003807 -0.72684026 2.7580001
1.0933203 -0.71366328 2.7080002
1.089052 -0.70259464 2.6660001
1.095955 -0.69890511 2.6520002
1.0906023 -0.68757296 2.6090002
1.104288 -0.68836355 2.6120002
1.1060311 -0.68177509 2.5870001
1.1096978 -0.67650431 2.5670002
1.120604 -0.67571372 2.5640001
1.13104 -0.67465955 2.5600002
1.139205 -0.6722877 2.5510001
1.1486381 -0.67070645 2.5450001
1.1571021 -0.66859818 2.5370002
1.1673335 -0.66754401 2.5330002
1.1775265 -0.66648978 2.529
1.188152 -0.66569918 2.526
1.1987488 -0.66490859 2.523
1.1651676 -0.63987243 2.4280002
1.1713922 -0.63697344 2.4170001
1.1809381 -0.63591933 2.4130001
1.1894575 -0.63433808 2.4070001
1.1969221 -0.6322298 2.3990002
0 -0 0
1.2228085 -0.63381106 2.4050002
1.2342548 -0.63381106 2.4050002
1.2457012 -0.63381106 2.4050002
1.2571477 -0.63381106 2.4050002
1.2712313 -0.63512868 2.4100001
1.2827015 -0.63512868 2.4100001
1.2941718 -0.63512868 2.4100001
1.287222 -0.62616837 2.3760002
1.2974374 -0.62564129 2.3740001
1.3026723 -0.62274235 2.3630002
1.3105824 -0.62116116 2.3570001
1.320118 -0.62037051 2.3540001
1.328494 -0.61905283 2.3490002
1.3379627 -0.61826223 2.3460002
1.3474032 -0.61747164 2.3430002
1.3562351 -0.61641747 2.3390002
1.3650289 -0.61536324 2.335
1.3537468 -0.60534883 2.2970002
1.3628968 -0.60455823 2.2940001
1.3714193 -0.60350406 2.2900002
1.3811111 -0.60297698 2.2880001
1.3901755 -0.60218632 2.2850001
1.3998243 -0.60165924 2.283
1.4168693 -0.60429466 2.2930002
1.4240466 -0.60271347 2.2870002
1.4274021 -0.59955096 2.2750001
1.4369655 -0.59902382 2.273
1.443962 -0.59744269 2.2670002
1.4322917 -0.58821881 2.2320001
1.4416218 -0.58769166 2.23
1.4502816 -0.58690107 2.227
1.4589128 -0.58611047 2.2240002
1.4681764 -0.58558339 2.2220001
1.4767553 -0.58479279 2.2190001
1.4846352 -0.58373863 2.2150002
1.4985524 -0.5850563 2.22
1.5030005 -0.58268452 2.2110002
1.5073625 -0.58031261 2.2020001
1.5137069 -0.57873136 2.1960001
1.5095835 -0.57319707 2.1750002
1.5241278 -0.57477826 2.181
1.5309904 -0.57346058 2.1760001
1.5385135 -0.57240647 2.1720002
1.5481377 -0.5721429 2.171
1.5534455 -0.57029814 2.164
1.5630223 -0.57003462 2.1630001
1.5711347 -0.56924397 2.1600001
1.5748258 -0.56687212 2.151
1.5843264 -0.56660861 2.1500001
1.5930759 -0.56608146 2.148
1.6032989 -0.56608146 2.148
1.6150247 -0.56660861 2.1500001
1.6275252 -0.5673992 2.1530001
1.6400542 -0.56818986 2.1560001
1.652612 -0.56898046 2.1590002
1.6659684 -0.57003462 2.1630001
1.6770378 -0.57029814 2.164
1.7076102 -0.57715011 2.1900001
1.7266629 -0.5800491 2.2010002
1.7797576 -0.59428018 2.2550001
1.8492467 -0.61378205 2.329
1.9721591 -0.6506775 2.4690001
1.995963 -0.6546306 2.4840002
2.040925 -0.66543567 2.5250001
2.0692036 -0.67070645 2.5450001
2.0903122 -0.67360538 2.5560002
2.1098802 -0.67597723 2.5650001
2.1402893 -0.68177509 2.5870001
2.1401205 -0.67782199 2.572
2.1531987 -0.67808557 2.5730002
2.1789105 -0.68230218 2.5890002
0 -0 0
0 -0 0
0 -0 0
0 -0 0
0 -0 0
0 -0 0
0 -0 0
0 -0 0
0 -0 0
0 -0 0
0 -0 0
0 -0 0
0 -0 0
0 -0 0
0 -0 0
0 -0 0
0 -0 0
0 -0 0
0 -0 0
0 -0 0
0 -0 0
0 -0 0
0 -0 0
0 -0 0
0 -0 0
0 -0 0
0 -0 0
0 -0 0
0 -0 0
0 -0 0
0 -0 0
-0 -0 0
-0 -0 0
-0 -0 0
-0 -0 0
-0 -0 0
-0 -0 0
-0 -0 0
-0 -0 0
-0 -0 0
-0 -0 0
-0 -0 0
-0 -0 0
-0 -0 0
-0 -0 0
-0 -0 0
-0 -0 0
-0 -0 0
-0 -0 0
-0 -0 0
-0 -0 0
-0 -0 0
-0 -0 0
-2.9806273 -0.83896297 3.2420001
-2.9715998 -0.84077442 3.2490001
-2.966145 -0.84362102 3.2600002
-2.95787 -0.8456912 3.2680001
-2.9774296 -0.85578364 3.3070002
-2.9903491 -0.86406457 3.3390002
-2.9682214 -0.86225313 3.3320003
-2.9975524 -0.87545085 3.3830001
-2.9885018 -0.87752116 3.3910003
-3.0135601 -0.88968378 3.4380002
-2.9971974 -0.88968378 3.4380002
-3.0085793 -0.89796472 3.4700003
-2.9955132 -0.89899981 3.4740002
-2.9806941 -0.89951736 3.4760001
-2.9581809 -0.89770591 3.4690001
-2.9526944 -0.90107 3.4820001
-2.9386518 -0.90184635 3.4850001
-2.9279346 -0.90365779 3.4920001
-2.9138157 -0.90443414 3.4950001
-2.9187343 -0.91116244 3.5210001
-2.8879654 -0.9067632 3.5040002
-2.9081628 -0.91840827 3.5490003
-2.8920863 -0.91866708 3.5500002
-2.8735704 -0.91814947 3.5480001
-2.8405809 -0.91297388 3.5280001
-2.8269913 -0.91400898 3.5320001
-2.8077943 -0.91323268 3.5290003
-2.7925799 -0.91375023 3.5310001
-2.806433 -0.92384261 3.5700002
-2.7863166 -0.92280751 3.5660002
-2.7708976 -0.92332506 3.5680001
-2.781702 -0.93264109 3.6040001
-2.7645493 -0.93264109 3.6040001
-2.7481587 -0.93289995 3.6050003
-2.7317586 -0.9331587 3.6060002
-2.7439554 -0.94325107 3.6450002
-2.7273552 -0.94350988 3.6460001
-2.7308145 -0.95075572 3.6740003
-2.7517314 -0.96421218 3.7260001
-2.7347317 -0.96447104 3.7270002
-2.7563593 -0.97844511 3.7810001
-2.7542975 -0.98413825 3.8030002
-2.7513065 -0.98957258 3.8240001
-2.7488306 -0.99526578 3.8460002
-2.730526 -0.99526578 3.8460002
-2.7277358 -1.0009589 3.8680003
-2.7254364 -1.0069108 3.8910003
-2.7222228 -1.012604 3.9130001
-2.7035992 -1.012604 3.9130001
-2.7007573 -1.0185559 3.9360001
-2.6820245 -1.0185559 3.9360001
-2.6788542 -1.0245078 3.9590001
-2.6761372 -1.0307186 3.9830003
-2.6725245 -1.0366704 4.006
-2.6693552 -1.0428811 4.0300002
-2.666615 -1.0493507 4.0550003
-2.6629841 -1.0555613 4.079
-2.6435704 -1.0555613 4.079
-2.64024 -1.0620308 4.1040001
-2.6207075 -1.0620308 4.1040001
-2.6011748 -1.0620308 4.1040001
-2.5816422 -1.0620308 4.1040001
-2.5621097 -1.0620308 4.1040001
-2.542577 -1.0620308 4.1040001
-2.5384138 -1.0685004 4.1290002
-2.5187624 -1.0685004 4.1290002
-2.4991107 -1.0685004 4.1290002
-2.4794588 -1.0685004 4.1290002
-2.4752967 -1.0752286 4.1550002
-2.4555213 -1.0752286 4.1550002
-2.4357457 -1.0752286 4.1550002
-2.4305072 -1.0816982 4.1800003
-2.4261837 -1.0886852 4.2070003
-2.4061608 -1.0886852 4.2070003
-2.4161985 -1.1024004 4.2600002
-2.3959236 -1.1024004 4.2600002
-2.3756485 -1.1024004 4.2600002
-2.3703017 -1.1093875 4.2870002
-2.3646982 -1.1163745 4.3140001
-2.3441658 -1.1163745 4.3140001
-2.3236337 -1.1163745 4.3140001
-2.3180499 -1.1236203 4.342
-2.2973845 -1.1236203 4.342
-2.2767191 -1.1236203 4.342
-2.2560539 -1.1236203 4.342
-2.2353885 -1.1236203 4.342
-2.2147231 -1.1236203 4.342
-2.1940579 -1.1236203 4.342
-2.1733923 -1.1236203 4.342
-2.1527271 -1.1236203 4.342
-2.1320617 -1.1236203 4.342
-2.0977807 -1.1163745 4.3140001
-2.0907309 -1.1236203 4.342
-2.0700655 -1.1236203 4.342
-2.0494001 -1.1236203 4.342
-2.0422847 -1.131125 4.3710003
-2.0214813 -1.131125 4.3710003
-2.013494 -1.1383708 4.3990002
-2.005693 -1.1458753 4.428
-1.9976162 -1.15338 4.4570003
-1.9897065 -1.1611433 4.487
-1.9815116 -1.1689068 4.5170002
-1.9734647 -1.176929 4.5480003
-1.9518191 -1.176929 4.5480003
-1.9433296 -1.1849511 4.579
-1.934545 -1.1929733 4.6100001
-1.9126042 -1.1929733 4.6100001
-1.8906634 -1.1929733 4.6100001
-1.881694 -1.2012542 4.6420002
-1.8724202 -1.2095351 4.6740003
-1.8632376 -1.2180749 4.7070003
-1.8537407 -1.2266146 4.7400002
-1.8439299 -1.2351543 4.7730002
-1.834568 -1.2442116 4.8080001
-1.824496 -1.25301 4.842
-1.8014511 -1.25301 4.842
-1.7912611 -1.2620674 4.8770003
-1.7680495 -1.2620674 4.8770003
-1.7448379 -1.2620674 4.8770003
-1.7343343 -1.2713834 4.9130001
-1.7234885 -1.2806995 4.9490004
-1.7126433 -1.2902743 4.9860001
-1.7014458 -1.2998492 5.0230002
-1.6902304 -1.3096828 5.0610003
-1.6786531 -1.3195164 5.0990005
-1.6543847 -1.3195164 5.0990005
-1.6301166 -1.3195164 5.0990005
-1.6058484 -1.3195164 5.0990005
-1.58158 -1.3195164 5.0990005
-1.5573119 -1.3195164 5.0990005
-1.5330436 -1.3195164 5.0990005
-1.4975312 -1.3096828 5.0610003
-1.4623806 -1.2998492 5.0230002
-1.4384742 -1.2998492 5.0230002
-0 -0 0
-0 -0 0
-0 -0 0
-0 -0 0
-0 -0 0
-0.6912182 -0.69378775 2.6810002
-0.67643368 -0.69171745 2.6730001
-0.6562627 -0.68395406 2.6430001
-0.64124817 -0.68136626 2.6330001
-0.62776148 -0.68033117 2.6290002
-0.61524904 -0.68033117 2.6290002
-0.60273653 -0.68033117 2.6290002
-0.59022403 -0.68033117 2.6290002
-0.57815099 -0.68084872 2.631
-0.56670392 -0.68214262 2.6360002
-0.55689108 -0.68550676 2.6490002
-0.54613262 -0.68783581 2.6580002
-0.53488708 -0.68964726 2.6650002
-0.52279109 -0.69042361 2.6680002
-0.51124007 -0.69197619 2.674
-0.49869987 -0.69223505 2.6750002
-0.48669511 -0.69327015 2.6790001
-0.4750061 -0.69482285 2.6850002
-0.46394861 -0.69741064 2.6950002
-0.45145676 -0.69792813 2.697
-0.44073483 -0.70129228 2.71
-0.42799476 -0.70155108 2.7110002
-0.41493884 -0.70129228 2.71
-0.40174413 -0.70077479 2.7080002
-0.38842484 -0.69999844 2.7050002
-0.37124676 -0.69197619 2.674
-0.35771564 -0.69042361 2.6680002
-0.34424159 -0.68887091 2.6620002
-0.33094925 -0.68757695 2.6570001
-0.31638673 -0.68343651 2.641
-0.30335698 -0.68240142 2.6370001
-0.29036528 -0.68136626 2.6330001
-0.27698961 -0.67929608 2.6250002
-0.26399237 -0.67800218 2.6200001
-0.2514267 -0.67774338 2.6190002
-0.23859681 -0.67670822 2.615
-0.22571854 -0.67541438 2.6100001
-0.21321477 -0.67515558 2.6090002
-0 -0 0
-0 -0 0
-0 -0 0
-0 -0 0
-0 -0 0
-0 -0 0
-0 -0 0
-0 -0 0
-0.05327668 -0.35452786 1.3700001
-0.046483256 -0.35245761 1.3620001
-0.039883461 -0.35142249 1.358
-0.033321742 -0.35038739 1.3540001
-0.026798096 -0.34935224 1.35
-0.020327618 -0.34857592 1.3470001
-0.013875363 -0.3475408 1.3430001
-0.0074667567 -0.34676445 1.34
-0.0010875198 -0.3462469 1.3380001
0.00527268 -0.34572935 1.3360001
0.011622547 -0.34547055 1.335
0.017976362 -0.34547055 1.335
0.024311952 -0.3452118 1.3340001
0.030661009 -0.3452118 1.3340001
0.037010062 -0.3452118 1.3340001
0.043326613 -0.344953 1.3330001
0.049670909 -0.344953 1.3330001
0.056015205 -0.344953 1.3330001
0.062359504 -0.344953 1.3330001
0.068703793 -0.344953 1.3330001
0.075048089 -0.344953 1.3330001
0.081392385 -0.344953 1.3330001
0.087736689 -0.344953 1.3330001
0.094080977 -0.344953 1.3330001
0.10050062 -0.3452118 1.3340001
0.10684967 -0.3452118 1.3340001
0.11319872 -0.3452118 1.3340001
0.11963739 -0.34547055 1.335
0.12599121 -0.34547055 1.335
0.13234502 -0.34547055 1.335
0.13869883 -0.34547055 1.335
0.14505264 -0.34547055 1.335
0.15140647 -0.34547055 1.335
0.15776028 -0.34547055 1.335
0.16411409 -0.34547055 1.335
0.1705956 -0.34572935 1.3360001
0.17695418 -0.34572935 1.3360001
0.18331274 -0.34572935 1.3360001
0.18967132 -0.34572935 1.3360001
0.19617662 -0.34598809 1.337
0.20253995 -0.34598809 1.337
0.20890328 -0.34598809 1.337
0.21526663 -0.34598809 1.337
0.22162995 -0.34598809 1.337
0.22816381 -0.3462469 1.3380001
0.23470721 -0.3465057 1.3390001
0.24108006 -0.3465057 1.3390001
0.24763769 -0.34676445 1.34
0.2542049 -0.34702325 1.3410001
0.26058728 -0.34702325 1.3410001
0.26696962 -0.34702325 1.3410001
0.273352 -0.34702325 1.3410001
0.27973437 -0.34702325 1.3410001
0.28611672 -0.34702325 1.3410001
0.29271722 -0.34728199 1.342
0.29910436 -0.34728199 1.342
0.30549148 -0.34728199 1.342
0.31211102 -0.3475408 1.3430001
0.3185029 -0.3475408 1.3430001
0.32513672 -0.3477996 1.3440001
0.33178002 -0.34805834 1.345
0.33843288 -0.34831715 1.3460001
0.34509528 -0.34857592 1.3470001
0.35176712 -0.34883469 1.348
0.35871422 -0.34935224 1.35
0.36568043 -0.34986982 1.3520001
0.37239033 -0.35012859 1.353
0.37910986 -0.35038739 1.3540001
0.3861236 -0.35090494 1.3560001
0.39257732 -0.35090494 1.3560001
0.40020818 -0.35194004 1.36
0 -0 0
0 -0 0
0 -0 0
0 -0 0
0 -0 0
0 -0 0
0 -0 0
1.1133591 -0.86691117 3.3500001
1.1289661 -0.86665237 3.3490002
1.1336238 -0.85811269 3.3160002
1.138314 -0.8498317 3.2840002
1.14024 -0.83973932 3.2450001
1.1467807 -0.83326983 3.2200003
1.1584969 -0.83068198 3.21
1.1624392 -0.82265985 3.1790001
1.1749763 -0.82084841 3.1720002
1.1675624 -0.80532169 3.1120002
1.161477 -0.79108876 3.0570002
1.1460199 -0.77090394 2.9790001
1.1305993 -0.75123674 2.9030001
1.1132727 -0.73079318 2.8240001
1.0991838 -0.71293736 2.7550001
1.0925127 -0.70025718 2.7060001
1.0870094 -0.6886121 2.661
1.0951284 -0.6857655 2.6500001
1.0922743 -0.67619073 2.6130002
1.103865 -0.67567313 2.6110001
1.0919225 -0.66092271 2.5540001
1.1071041 -0.66273415 2.5610001
1.118856 -0.66247541 2.5600002
1.1283891 -0.66092271 2.5540001
1.1378652 -0.65937001 2.5480001
1.1477356 -0.65807617 2.5430002
1.156646 -0.65626466 2.536
1.1673335 -0.65548837 2.5330002
1.1775265 -0.65445322 2.529
1.188152 -0.65367687 2.526
1.1987488 -0.65290052 2.523
1.1646876 -0.62805772 2.427
1.1713922 -0.62546992 2.4170001
1.1794699 -0.62365848 2.4100001
1.1889634 -0.62262338 2.4060001
1.197421 -0.62107068 2.4000001
0 -0 0
1.2355195 -0.62883407 2.4300001
1.2465717 -0.62857527 2.4290001
1.2576144 -0.62831652 2.4280002
1.2681248 -0.62779891 2.4260001
1.2733412 -0.62469357 2.414
1.2842983 -0.62443483 2.4130001
1.2957828 -0.62443483 2.4130001
1.2883055 -0.61537749 2.378
1.2979839 -0.61460114 2.375
1.3026723 -0.61149585 2.3630002
1.3111384 -0.6102019 2.358
1.320118 -0.6091668 2.3540001
1.3290595 -0.60813171 2.3500001
1.338533 -0.60735536 2.3470001
1.3474032 -0.60632026 2.3430002
1.356815 -0.60554391 2.3400002
1.3656136 -0.60450882 2.3360002
1.3531573 -0.59415758 2.296
1.3623028 -0.59338129 2.2930002
1.3708204 -0.59234613 2.289
1.3811111 -0.59208739 2.2880001
1.3901755 -0.59131104 2.2850001
1.3998243 -0.59079343 2.283
1.4100722 -0.59053469 2.2820001
1.4252919 -0.59234613 2.289
1.4280295 -0.58898199 2.276
1.4363333 -0.58794689 2.2720001
1.4235797 -0.57837206 2.2350001
1.4329333 -0.57785451 2.233
1.4416218 -0.57707816 2.23
1.4502816 -0.57630181 2.227
1.4589128 -0.57552552 2.2240002
1.4675156 -0.57474917 2.2210002
1.4760898 -0.57397282 2.2180002
1.4839649 -0.57293767 2.214
1.4911273 -0.57164383 2.2090001
1.4975621 -0.57009113 2.2030001
1.5073625 -0.56983238 2.2020001
1.5123283 -0.56776208 2.194
1.5095835 -0.56284535 2.1750002
1.5241278 -0.56439793 2.181
1.5309904 -0.56310409 2.1760001
1.5385135 -0.562069 2.1720002
1.5417199 -0.5594812 2.1620002
1.5491382 -0.55844605 2.158
1.5550735 -0.55689341 2.1520002
1.5631336 -0.55611706 2.1490002
1.5755579 -0.55689341 2.1520002
1.5850632 -0.55663455 2.151
1.5930759 -0.55585825 2.148
1.6040455 -0.55611706 2.1490002
1.6150247 -0.5563758 2.1500001
1.6267693 -0.55689341 2.1520002
1.6392936 -0.55766976 2.1550002
1.6518464 -0.55844605 2.158
1.6651982 -0.5594812 2.1620002
1.6778129 -0.56025755 2.1650002
1.7060509 -0.56620944 2.1880002
1.7219559 -0.56802088 2.1950002
1.7600263 -0.57707816 2.23
1.8222505 -0.59389883 2.2950001
1.9721591 -0.63892645 2.4690001
2.0289075 -0.65341812 2.5250001
2.0417333 -0.65367687 2.526
2.0716426 -0.65937001 2.5480001
2.0919478 -0.6619578 2.5580001
2.1098802 -0.66376925 2.5650001
2.126225 -0.6650632 2.5700002
2.1384566 -0.6650632 2.5700002
2.1506882 -0.6650632 2.5700002
2.1603951 -0.66428685 2.5670002
0 -0 0
0 -0 0
0 -0 0
0 -0 0
0 -0 0
0 -0 0
0 -0 0
0 -0 0
0 -0 0
0 -0 0
0 -0 0
0 -0 0
0 -0 0
0 -0 0
0 -0 0
0 -0 0
0 -0 0
0 -0 0
0 -0 0
0 -0 0
0 -0 0
0 -0 0
0 -0 0
0 -0 0
0 -0 0
0 -0 0
0 -0 0
0 -0 0
0 -0 0
0 -0 0
0 -0 0
-0 -0 0
-0 -0 0
-0 -0 0
-0 -0 0
-0 -0 0
-0 -0 0
-0 -0 0
-0 -0 0
-0 -0 0
-0 -0 0
-0 -0 0
-0 -0 0
-0 -0 0
-0 -0 0
-0 -0 0
-0 -0 0
-0 -0 0
-0 -0 0
-0 -0 0
-0 -0 0
-0 -0 0
-0 -0 0
-2.9447715 -0.81362617 3.2030001
-2.9706852 -0.82505709 3.2480001
-2.9615955 -0.82683522 3.2550001
-2.956965 -0.82988352 3.2670002
-2.9765294 -0.83979028 3.3060002
-2.9491522 -0.83648801 3.2930002
-2.9682214 -0.84639484 3.3320003
-2.9966664 -0.85909581 3.3820002
-2.9876204 -0.86112797 3.3900001
-3.0144365 -0.87357491 3.4390001
-2.9971974 -0.87332094 3.4380002
-3.0111802 -0.88221157 3.473
-2.9972374 -0.88297367 3.4760001
-2.982409 -0.88348174 3.4780002
-2.9701195 -0.88475186 3.4830003
-2.9552383 -0.88525987 3.4850001
-2.9411817 -0.88602191 3.4880002
-2.9279346 -0.88703799 3.4920001
-2.9129822 -0.88754606 3.4940002
-2.8971815 -0.88780004 3.4950001
-2.8854928 -0.88932419 3.5010002
-2.86883 -0.88932419 3.5010002
-2.8505378 -0.88881612 3.4990001
-2.8346949 -0.88907021 3.5000002
-2.8196471 -0.88957816 3.5020001
-2.8253906 -0.89669079 3.5300002
-2.8093855 -0.89694476 3.5310001
-2.7917893 -0.89669079 3.5300002
-2.8056469 -0.90659755 3.5690002
-2.7855351 -0.90558141 3.5650001
-2.7708976 -0.90634352 3.5680001
-2.7801585 -0.91498023 3.6020002
-2.7630153 -0.91498023 3.6020002
-2.746634 -0.91523421 3.6030002
-2.7302434 -0.91548824 3.6040001
-2.7123377 -0.91523421 3.6030002
-2.6899533 -0.91345608 3.5960002
-2.7300711 -0.93301558 3.6730001
-2.7103744 -0.93225354 3.6700001
-2.7105176 -0.93835008 3.6940002
-2.7257411 -0.94978094 3.7390001
-2.723155 -0.95511538 3.7600002
-2.7203689 -0.96044981 3.7810001
-2.7023733 -0.96044981 3.7810001
-2.6999974 -0.96603823 3.8030002
-2.6967065 -0.97137266 3.8240001
-2.6785066 -0.97137266 3.8240001
-2.675612 -0.97696108 3.8460002
-2.6725075 -0.98254955 3.8680003
-2.654098 -0.98254955 3.8680003
-2.6513612 -0.98839206 3.8910003
-2.6328423 -0.98839206 3.8910003
-2.6291049 -0.99398041 3.9130001
-2.6258254 -0.99982291 3.9360001
-2.6223269 -1.0056653 3.9590001
-2.619267 -1.0117619 3.9830003
-2.6003103 -1.0117619 3.9830003
-2.5962596 -1.0176042 4.006
-2.5926335 -1.0237008 4.0300002
-2.5894175 -1.0300514 4.0550003
-2.570118 -1.0300514 4.0550003
-2.5508184 -1.0300514 4.0550003
-2.5465021 -1.0361477 4.079
-2.5270884 -1.0361477 4.079
-2.5076747 -1.0361477 4.079
-2.4882612 -1.0361477 4.079
-2.4688475 -1.0361477 4.079
-2.4644463 -1.0424982 4.1040001
-2.4449139 -1.0424982 4.1040001
-2.4401557 -1.0488487 4.1290002
-2.4357457 -1.0554533 4.1550002
-2.4305072 -1.0618038 4.1800003
-2.4261837 -1.0686624 4.2070003
-2.4061608 -1.0686624 4.2070003
-2.4008846 -1.0752668 4.2330003
-2.3959236 -1.0821254 4.2600002
-2.3756485 -1.0821254 4.2600002
-2.3553731 -1.0821254 4.2600002
-2.3498981 -1.0889839 4.2870002
-2.3294945 -1.0889839 4.2870002
-2.3090909 -1.0889839 4.2870002
-2.3031018 -1.0958425 4.3140001
-2.2825696 -1.0958425 4.3140001
-2.2767191 -1.102955 4.342
-2.2560539 -1.102955 4.342
-2.2353885 -1.102955 4.342
-2.2147231 -1.102955 4.342
-2.1940579 -1.102955 4.342
-2.1733923 -1.102955 4.342
-2.1527271 -1.102955 4.342
-2.1320617 -1.102955 4.342
-2.1113963 -1.102955 4.342
-2.0907309 -1.102955 4.342
-2.0700655 -1.102955 4.342
-2.0494001 -1.102955 4.342
-2.0422847 -1.1103216 4.3710003
-2.0214813 -1.1103216 4.3710003
-2.013494 -1.1174341 4.3990002
-2.005693 -1.1248007 4.428
-1.9976162 -1.1321673 4.4570003
-1.9897065 -1.1397879 4.487
-1.9815116 -1.1474086 4.5170002
-1.9600132 -1.1474086 4.5170002
-1.9651228 -1.1631577 4.579
-1.9433296 -1.1631577 4.579
-1.934545 -1.1710324 4.6100001
-1.9126042 -1.1710324 4.6100001
-1.8906634 -1.1710324 4.6100001
-1.881694 -1.1791611 4.6420002
-1.8596009 -1.1791611 4.6420002
-1.8632376 -1.1956724 4.7070003
-1.8537407 -1.2040551 4.7400002
-1.8439299 -1.2124377 4.7730002
-1.834568 -1.2213284 4.8080001
-1.824496 -1.229965 4.842
-1.8014511 -1.229965 4.842
-1.7912611 -1.2388558 4.8770003
-1.7811004 -1.2480005 4.9130001
-1.7577175 -1.2480005 4.9130001
-1.7343343 -1.2480005 4.9130001
-1.7234885 -1.2571453 4.9490004
-1.7126433 -1.2665439 4.9860001
-1.7014458 -1.2759427 5.0230002
-1.6775393 -1.2759427 5.0230002
-1.6661431 -1.2855955 5.0610003
-1.6543847 -1.2952483 5.0990005
-1.6301166 -1.2952483 5.0990005
-1.6058484 -1.2952483 5.0990005
-1.58158 -1.2952483 5.0990005
-1.5573119 -1.2952483 5.0990005
-1.5330436 -1.2952483 5.0990005
-1.4862871 -1.2759427 5.0230002
-1.4516085 -1.2665439 4.9860001
-0 -0 0
-0 -0 0
-0 -0 0
-0 -0 0
-0 -0 0
-0 -0 0
-0.69147605 -0.68128181 2.6820002
-0.67744589 -0.68001163 2.677
-0.65551782 -0.67061293 2.6400001
-0.64149171 -0.66908878 2.6340001
-0.62800026 -0.6680727 2.6300001
-0.61524904 -0.66781873 2.6290002
-0.60250723 -0.66756463 2.628
-0.59022403 -0.66781873 2.6290002
-0.57815099 -0.66832674 2.631
-0.56648898 -0.66934288 2.6350002
-0.55626041 -0.67213702 2.6460001
-0.54572165 -0.67467725 2.6560001
-0.53508776 -0.67721742 2.6660001
-0.52239913 -0.67721742 2.6660001
-0.51066649 -0.6784876 2.6710002
-0.499632 -0.68077374 2.6800001
-0.48778513 -0.68204385 2.6850002
-0.47553682 -0.6828059 2.6880002
-0.46412075 -0.68483806 2.6960001
-0.45128939 -0.68483806 2.6960001
-0.4386206 -0.68509203 2.697
-0.427679 -0.68814033 2.7090001
-0.41463265 -0.6878863 2.7080002
-0.40129906 -0.68712425 2.7050002
-0.38785046 -0.68610817 2.7010002
-0.37152442 -0.67975765 2.6760001
-0.35798377 -0.6782335 2.6700001
-0.34424159 -0.6762014 2.6620002
-0.33107382 -0.67518532 2.6580002
-0.31638673 -0.67086691 2.641
-0.30358708 -0.6703589 2.6390002
-0.29036528 -0.66883481 2.6330001
-0.27688408 -0.66654861 2.6240001
-0.26419389 -0.6660406 2.6220002
-0.25123468 -0.66477048 2.6170001
-0.23841435 -0.6637544 2.6130002
-0.22554557 -0.66248429 2.608
-0.21280615 -0.66146821 2.6040001
-0 -0 0
-0 -0 0
-0 -0 0
-0 -0 0
-0 -0 0
-0 -0 0
-0 -0 0
-0 -0 0
-0 -0 0
-0.04638087 -0.34521326 1.3590001
-0.03979535 -0.34419715 1.355
-0.033272523 -0.34343511 1.3520001
-0.026778245 -0.34267306 1.3490001
-0.020312525 -0.34191099 1.3460001
-0.013875363 -0.34114891 1.3430001
-0.0074667567 -0.34038687 1.34
-0.0010875198 -0.33987883 1.3380001
0.005276626 -0.33962479 1.337
0.011631254 -0.33937079 1.3360001
0.017976362 -0.33911675 1.335
0.024311952 -0.33886275 1.3340001
0.030661009 -0.33886275 1.3340001
0.037010062 -0.33886275 1.3340001
0.043359116 -0.33886275 1.3340001
0.049670909 -0.33860871 1.3330001
0.056015205 -0.33860871 1.3330001
0.062359504 -0.33860871 1.3330001
0.068703793 -0.33860871 1.3330001
0.075048089 -0.33860871 1.3330001
0.081392385 -0.33860871 1.3330001
0.087736689 -0.33860871 1.3330001
0.094080977 -0.33860871 1.3330001
0.10050062 -0.33886275 1.3340001
0.10684967 -0.33886275 1.3340001
0.11328357 -0.33911675 1.335
0.11963739 -0.33911675 1.335
0.12599121 -0.33911675 1.335
0.13234502 -0.33911675 1.335
0.13869883 -0.33911675 1.335
0.14505264 -0.33911675 1.335
0.15140647 -0.33911675 1.335
0.15776028 -0.33911675 1.335
0.16411409 -0.33911675 1.335
0.1705956 -0.33937079 1.3360001
0.17695418 -0.33937079 1.3360001
0.18331274 -0.33937079 1.3360001
0.18967132 -0.33937079 1.3360001
0.19617662 -0.33962479 1.337
0.20253995 -0.33962479 1.337
0.20890328 -0.33962479 1.337
0.21542764 -0.33987883 1.3380001
0.22179572 -0.33987883 1.3380001
0.22816381 -0.33987883 1.3380001
0.23470721 -0.34013286 1.3390001
0.24108006 -0.34013286 1.3390001
0.24763769 -0.34038687 1.34
0.2542049 -0.3406409 1.3410001
0.26058728 -0.3406409 1.3410001
0.26696962 -0.3406409 1.3410001
0.273352 -0.3406409 1.3410001
0.27973437 -0.3406409 1.3410001
0.28611672 -0.3406409 1.3410001
0.29271722 -0.34089488 1.342
0.29910436 -0.34089488 1.342
0.30571911 -0.34114891 1.3430001
0.31211102 -0.34114891 1.3430001
0.3185029 -0.34114891 1.3430001
0.32513672 -0.34140295 1.3440001
0.33153337 -0.34140295 1.3440001
0.33818141 -0.34165695 1.345
0.34483907 -0.34191099 1.3460001
0.35176712 -0.34241903 1.348
0.35844851 -0.34267306 1.3490001
0.36540994 -0.34318107 1.3510001
0.37211514 -0.34343511 1.3520001
0.37882987 -0.34368911 1.353
0.38555408 -0.34394315 1.3540001
0.39199832 -0.34394315 1.3540001
0 -0 0
0 -0 0
0 -0 0
0 -0 0
0 -0 0
0 -0 0
0 -0 0
1.0964323 -0.85020506 3.3470001
1.1130269 -0.85071313 3.3490002
1.128629 -0.8504591 3.348
1.1336238 -0.84233052 3.3160002
1.1390073 -0.83470988 3.2860003
1.1391859 -0.823533 3.2420001
1.1467807 -0.81794459 3.2200003
1.1584969 -0.8154043 3.21
1.1649988 -0.80930787 3.1860001
1.1760876 -0.80651367 3.1750002
1.1690631 -0.7915265 3.1160002
1.1618569 -0.7767933 3.0580001
1.1448658 -0.75596362 2.9760001
1.1278731 -0.73564208 2.8960001
1.1085421 -0.71430433 2.812
1.0967898 -0.69830108 2.7490001
1.0864568 -0.683568 2.6910002
1.0853754 -0.67493123 2.6570001
1.0806644 -0.66426241 2.615
1.0935284 -0.66451645 2.6160002
1.0920274 -0.65613377 2.5830002
1.0927776 -0.64927524 2.5560002
1.1075363 -0.65079933 2.562
1.1184188 -0.65003729 2.559
1.1279473 -0.6485132 2.5530002
1.1374186 -0.64698905 2.5470002
1.1472842 -0.64571893 2.5420001
1.156646 -0.64419484 2.536
1.1673335 -0.6434328 2.5330002
1.1775265 -0.64241666 2.529
1.188152 -0.64165461 2.526
1.1987488 -0.64089257 2.523
0 -0 0
0 -0 0
1.1784911 -0.61168033 2.4080002
1.1904459 -0.6119343 2.4090002
0 -0 0
0 -0 0
1.2543319 -0.62666744 2.467
1.2645339 -0.62590539 2.4640002
1.2741891 -0.62488931 2.46
1.2838064 -0.62387323 2.4560001
1.2933856 -0.62285715 2.4520001
1.2784437 -0.61015618 2.4020002
1.2963197 -0.61320436 2.414
1.2888473 -0.60431373 2.3790002
1.2985305 -0.60355163 2.3760002
1.3037747 -0.60075736 2.365
1.3116945 -0.59923333 2.3590002
1.3212396 -0.59847122 2.3560002
1.3301905 -0.59745514 2.352
1.3391033 -0.59643906 2.348
1.3485532 -0.59567702 2.345
1.3579745 -0.59491491 2.342
1.3656136 -0.59339088 2.3360002
1.3749635 -0.59262878 2.3330002
1.3842849 -0.59186673 2.3300002
1.3935776 -0.59110469 2.3270001
1.3811111 -0.58119786 2.2880001
1.3901755 -0.58043581 2.2850001
1.3998243 -0.57992774 2.283
1.4100722 -0.57967371 2.2820001
1.4259146 -0.58170593 2.2900002
1.4280295 -0.57814962 2.276
1.4331723 -0.57586348 2.2670002
1.4242165 -0.56798881 2.2360001
1.4329333 -0.56722677 2.233
1.4416218 -0.56646466 2.23
1.4502816 -0.56570262 2.227
1.4589128 -0.56494063 2.2240002
1.4675156 -0.56417853 2.2210002
1.4760898 -0.56341648 2.2180002
1.4839649 -0.56240034 2.214
1.4911273 -0.56113029 2.2090001
1.4975621 -0.55960613 2.2030001
1.5073625 -0.55935216 2.2020001
1.5033673 -0.55401772 2.181
1.5088892 -0.55223954 2.174
1.5241278 -0.55401772 2.181
1.5345081 -0.55401772 2.181
1.5399301 -0.55223954 2.174
1.543146 -0.54969937 2.164
1.5512918 -0.54893732 2.161
1.5550735 -0.54665118 2.1520002
1.5631336 -0.54588908 2.1490002
1.5770222 -0.54715919 2.154
1.5850632 -0.54639709 2.151
1.5945592 -0.54614311 2.1500001
1.6047919 -0.54614311 2.1500001
1.6157757 -0.54639709 2.151
1.6267693 -0.54665118 2.1520002
1.6392936 -0.54741323 2.1550002
1.6518464 -0.54817522 2.158
1.6651982 -0.54919136 2.1620002
1.6778129 -0.5499534 2.1650002
1.7044914 -0.55528784 2.1860001
1.7203869 -0.55706596 2.1930001
1.7545016 -0.56468654 2.223
0 -0 0
1.9202391 -0.61066419 2.404
2.0281041 -0.6411466 2.5240002
