# .PCD v0.7 - Point Cloud Data file format
VERSION 0.7
FIELDS x y z
SIZE 4 4 4
TYPE F F F
COUNT 1 1 1
WIDTH 1687
HEIGHT 1
VIEWPOINT 0 0 0 1 0 0 0
POINTS 1687
DATA ascii
0.50246787 0.083663106 1.654
0.50879723 0.083410196 1.649
0.51570559 0.08325845 1.646
0.52226728 0.083056122 1.6420001
0.52943665 0.082954958 1.6400001
0.53691447 0.082904376 1.6390001
0.54438275 0.082853794 1.6380001
0.55217874 0.082853794 1.6380001
0.56031644 0.082904376 1.6390001
0.56846374 0.082954958 1.6400001
0.57662058 0.08300554 1.641
0.58478695 0.083056122 1.6420001
0.59332365 0.083157286 1.6440001
0.60187948 0.08325845 1.646
0.61045432 0.083359621 1.6480001
0.61904818 0.083460785 1.6500001
0.62766111 0.083561949 1.6520001
0.63667774 0.083713695 1.6550001
0.64494401 0.083764277 1.6560001
0.6536141 0.083865441 1.6580001
0.66230309 0.083966605 1.6600001
0.67101121 0.084067769 1.6620001
0.67973834 0.084168933 1.664
0.68848455 0.084270105 1.6660001
0.69724977 0.084371261 1.6680001
0.706034 0.084472425 1.6700001
0.71440971 0.084523015 1.6710001
0.72322732 0.084624179 1.6730001
0.73206389 0.084725335 1.6750001
0.74136132 0.084877089 1.6780001
0.7502408 0.084978253 1.6800001
0.75959063 0.085129999 1.6830001
0.76896894 0.085281745 1.6860001
0.77883673 0.085484073 1.6900001
0.7887426 0.085686408 1.6940001
0.79868644 0.085888728 1.6980001
0.80866849 0.086091056 1.702
0.81868857 0.086293392 1.7060001
0.82923132 0.086546302 1.7110001
0.83933228 0.08674863 1.715
0.84947139 0.086950958 1.7190001
0.85914958 0.087102711 1.7220001
0.86936003 0.087305039 1.7260001
0.87859166 0.087406196 1.728
0.88784236 0.087507367 1.7300001
0.89711207 0.087608531 1.7320001
0.90640086 0.087709695 1.7340001
0.91570854 0.087810859 1.7360001
0.92450315 0.087861441 1.7370001
0.93384427 0.087962605 1.7390001
0.94320434 0.088063769 1.7410001
0.95258355 0.088164933 1.743
0.96198183 0.088266104 1.7450001
0.971955 0.088417843 1.748
0.9819569 0.088569589 1.751
0.99198735 0.088721342 1.7540001
1.0009056 0.088771924 1.7550001
1.0109837 0.08892367 1.7580001
1.0210901 0.089075416 1.761
1.0306407 0.08917658 1.7630001
1.041389 0.089378908 1.7670001
1.0509871 0.089480072 1.7690001
1.061203 0.089631818 1.7720001
1.0702404 0.089682408 1.7730001
1.0805041 0.089834154 1.7760001
1.0895698 0.089884736 1.7770001
1.0992632 0.089985892 1.779
1.1083529 0.090036482 1.7800001
1.117452 0.090087064 1.7810001
1.1271929 0.090188228 1.7830001
1.135042 0.090137646 1.7820001
1.1441649 0.090188228 1.7830001
1.1532974 0.09023881 1.784
1.1624395 0.090289392 1.7850001
1.170935 0.090289392 1.7850001
1.1800914 0.090339974 1.7860001
1.1885917 0.090339974 1.7860001
1.1991026 0.09049172 1.789
0 0 0
0 0 0
0 0 0
0 0 0
0 0 0
1.6981342 0.12291497 2.4300001
1.7181426 0.12352196 2.4420002
1.7205567 0.12286439 2.4290001
1.7214208 0.12210565 2.414
1.7250136 0.12154925 2.4030001
1.7256112 0.12079051 2.388
1.7289754 0.12023411 2.3770001
1.7366281 0.1199812 2.3720002
1.7449697 0.11977886 2.368
1.7540151 0.11962712 2.365
1.7652709 0.11962712 2.365
1.776527 0.11962712 2.365
1.7900509 0.11977886 2.368
1.8036032 0.11993061 2.3710001
1.820246 0.12028468 2.378
1.8531299 0.12170099 2.4060001
1.8684556 0.1219539 2.411
1.9033228 0.12347138 2.4410002
1.915725 0.12352196 2.4420002
1.9565495 0.12539349 2.4790001
1.9961386 0.12716389 2.5140002
2.0112989 0.12736621 2.5180001
2.0690839 0.1302494 2.575
2.0845728 0.13045174 2.5790002
2.1196125 0.13186803 2.6070001
2.1361094 0.13212095 2.6120002
2.1526537 0.13237385 2.6170001
2.170073 0.13267735 2.6230001
2.1858852 0.13287967 2.6270001
2.1983883 0.13287967 2.6270001
2.2125745 0.13298085 2.6290002
2.2250869 0.13298085 2.6290002
2.2393017 0.133082 2.631
2.2492559 0.13293026 2.628
2.2609031 0.13287967 2.6270001
2.2716753 0.13277853 2.6250002
2.2798181 0.13252561 2.6200001
2.2905376 0.13242443 2.618
2.3029978 0.13242443 2.618
2.3243024 0.13293026 2.628
2.3394775 0.133082 2.631
2.367197 0.13394192 2.6480002
2.3842936 0.13419482 2.6530001
2.4059548 0.13470064 2.6630001
2.4222622 0.13490297 2.6670001
2.4504764 0.13576287 2.684
2.4678395 0.13601579 2.6890001
2.4843276 0.13621812 2.6930001
2.4999266 0.13636985 2.6960001
2.5034375 0.13586403 2.6860001
2.517158 0.13591461 2.687
2.5318298 0.13601579 2.6890001
2.5474668 0.13616753 2.6920002
2.5640833 0.13636985 2.6960001
2.5807381 0.13657218 2.7
2.5964701 0.13672394 2.7030001
2.6103005 0.13677453 2.7040002
2.62608 0.13692626 2.707
2.5950949 0.13465007 2.6620002
0 0 0
0 0 0
0 0 0
-0 0 0
-0 0 0
-0 0 0
-0 0 0
-0 0 0
-0 0 0
-0 0 0
-0 0 0
-0 0 0
-0 0 0
-0 0 0
-0 0 0
-0 0 0
-0 0 0
-0 0 0
-0 0 0
-0 0 0
-0 0 0
-0 0 0
-0 0 0
-0 0 0
-0 0 0
-0.50657791 0.030493278 0.551
-0.50487018 0.030548623 0.55200005
-0.50224298 0.030548623 0.55200005
-0.50052083 0.030603964 0.55300003
-0.49788892 0.030603964 0.55300003
-0.49525696 0.030603964 0.55300003
-0.492625 0.030603964 0.55300003
-0.48999307 0.030603964 0.55300003
-0.48824239 0.030659303 0.55400002
-0.48560566 0.030659303 0.55400002
-0.48296896 0.030659303 0.55400002
-0.48119926 0.030714644 0.55500001
-0.47855777 0.030714644 0.55500001
-0.47677386 0.030769989 0.55600005
-0.47412762 0.030769989 0.55600005
-0.47148138 0.030769989 0.55600005
-0.46967837 0.03082533 0.55700004
-0.4670274 0.03082533 0.55700004
-0.46521008 0.030880671 0.55800003
-0.46255431 0.030880671 0.55800003
-0.45989859 0.030880671 0.55800003
-0.45806223 0.030936012 0.55900002
-0.45540172 0.030936012 0.55900002
-0.45355114 0.030991353 0.56
-0.45169106 0.031046698 0.56100005
-0.44902101 0.031046698 0.56100005
-0.44714662 0.031102039 0.56200004
-0.44447184 0.031102039 0.56200004
-0.44258311 0.03115738 0.56300002
-0.43990359 0.03115738 0.56300002
-0.43800062 0.031212721 0.56400001
-0.43608814 0.03126806 0.565
-0.43339908 0.03126806 0.565
-0.43147236 0.031323407 0.56600004
-0.42877853 0.031323407 0.56600004
-0.4268375 0.031378746 0.56700003
-0.4241389 0.031378746 0.56700003
-0.4221836 0.031434089 0.56800002
-0.41948026 0.031434089 0.56800002
-0.41677693 0.031434089 0.56800002
-0.41480255 0.031489428 0.56900001
-0.41209447 0.031489428 0.56900001
-0.41010585 0.031544775 0.57000005
-0.40739298 0.031544775 0.57000005
-0.40468016 0.031544775 0.57000005
-0.40267247 0.031600114 0.57100004
-0.39995483 0.031600114 0.57100004
-0.39723724 0.031600114 0.57100004
-0.3952105 0.031655453 0.57200003
-0.39248812 0.031655453 0.57200003
-0.38976577 0.031655453 0.57200003
-0.38772002 0.031710796 0.57300001
-0.38499287 0.031710796 0.57300001
-0.38293284 0.031766135 0.574
-0.38086334 0.031821482 0.57500005
-0.37812668 0.031821482 0.57500005
-0.37604287 0.031876821 0.57600003
-0.37330145 0.031876821 0.57600003
-0.37120333 0.031932164 0.57700002
-0.36909574 0.031987503 0.57800001
-0.36634481 0.031987503 0.57800001
-0.36422291 0.03204285 0.57900006
-0.36209154 0.032098189 0.58000004
-0.35933107 0.032098189 0.58000004
-0.35718536 0.032153532 0.58100003
-0.35503018 0.032208871 0.58200002
-0.3522602 0.032208871 0.58200002
-0.35009068 0.032264214 0.583
-0.34791175 0.032319557 0.58400005
-0.34513223 0.032319557 0.58400005
-0.34293896 0.032374896 0.58500004
-0.34015471 0.032374896 0.58500004
-0.33737046 0.032374896 0.58500004
-0.33515811 0.032430239 0.58600003
-0.33236909 0.032430239 0.58600003
-0.3301425 0.032485578 0.58700001
-0.32734874 0.032485578 0.58700001
-0.32455495 0.032485578 0.58700001
-0.32230932 0.032540921 0.588
-0.3200542 0.032596264 0.58900005
-0.31725088 0.032596264 0.58900005
-0.31498149 0.032651607 0.59000003
-0.31217343 0.032651607 0.59000003
-0.3098897 0.032706946 0.59100002
-0.3070769 0.032706946 0.59100002
-0.3047789 0.032762289 0.59200001
-0.30196133 0.032762289 0.59200001
-0.29964909 0.032817632 0.59300005
-0.29732731 0.032872975 0.59400004
-0.29450023 0.032872975 0.59400004
-0.29216415 0.032928314 0.59500003
-0.28981856 0.032983657 0.59600002
-0.28746349 0.033038996 0.597
-0.28509888 0.033094339 0.59800005
-0.28272474 0.033149682 0.59900004
-0.27987385 0.033149682 0.59900004
-0.27748543 0.033205021 0.60000002
-0.27508751 0.033260364 0.60100001
-0.27222708 0.033260364 0.60100001
-0.26981488 0.033315707 0.60200006
-0.26694974 0.033315707 0.60200006
-0.26452324 0.03337105 0.60300004
-0.2616533 0.03337105 0.60300004
-0.25921255 0.033426389 0.60400003
-0.25633788 0.033426389 0.60400003
-0.25346318 0.033426389 0.60400003
-0.25100335 0.033481732 0.60500002
-0.24812393 0.033481732 0.60500002
-0.24564983 0.033537071 0.60600001
-0.24316625 0.033592418 0.60700005
-0.24067314 0.033647757 0.60800004
-0.23777941 0.033647757 0.60800004
-0.23527201 0.033703096 0.60900003
-0.23275509 0.033758439 0.61000001
-0.23022865 0.033813778 0.611
-0.22769271 0.033869125 0.61200005
-0.22477995 0.033869125 0.61200005
-0.2222297 0.033924464 0.61300004
-0.21966997 0.033979807 0.61400002
-0.21710068 0.034035146 0.61500001
-0.21417364 0.034035146 0.61500001
-0.21159013 0.034090493 0.61600006
-0.20899704 0.034145832 0.61700004
-0.20606048 0.034145832 0.61700004
-0.20345314 0.034201175 0.61800003
-0.20083626 0.034256514 0.61900002
-0.19820988 0.034311857 0.62
-0.19525905 0.034311857 0.62
-0.1926184 0.0343672 0.62100005
-0.18996821 0.034422539 0.62200004
-0.18700787 0.034422539 0.62200004
-0.1843434 0.034477882 0.62300003
-0.18137829 0.034477882 0.62300003
-0.17869955 0.034533221 0.62400001
-0.17572968 0.034533221 0.62400001
-0.17303666 0.034588564 0.625
-0.17006204 0.034588564 0.625
-0.16735475 0.034643907 0.62600005
-0.16463794 0.03469925 0.62700003
-0.16191161 0.034754589 0.62800002
-0.15917574 0.034809932 0.62900001
-0.15618208 0.034809932 0.62900001
-0.15343197 0.034865275 0.63000005
-0.15067232 0.034920618 0.63100004
-0.14766912 0.034920618 0.63100004
-0.14466594 0.034920618 0.63100004
-0.14188725 0.034975957 0.63200003
-0.13909905 0.0350313 0.63300002
-0.13630132 0.035086639 0.634
-0.13349409 0.035141982 0.63500005
-0.13067733 0.035197325 0.63600004
-0.12785105 0.035252664 0.63700002
-0.12501524 0.035308007 0.63800001
-0.12197874 0.035308007 0.63800001
-0.11912868 0.03536335 0.63900006
-0.11626908 0.035418693 0.64000005
-0.11322305 0.035418693 0.64000005
-0.11034919 0.035474032 0.64100003
-0.1072984 0.035474032 0.64100003
-0.10441025 0.035529375 0.64200002
-0.10135471 0.035529375 0.64200002
-0.098452277 0.035584714 0.64300001
-0.095391974 0.035584714 0.64300001
-0.092475273 0.035640057 0.64400005
-0.089410216 0.035640057 0.64400005
-0.086479224 0.0356954 0.64500004
-0.083538719 0.035750739 0.64600003
-0.080588698 0.035806082 0.64700001
-0.077629156 0.035861421 0.648
-0.0746601 0.035916768 0.64900005
-0.071681522 0.035972107 0.65000004
-0.068693422 0.03602745 0.65100002
-0.065695807 0.036082789 0.65200001
-0.062688671 0.036138136 0.65300006
-0.059580777 0.036138136 0.65300006
-0.056559362 0.036193475 0.65400004
-0.053528428 0.036248818 0.65500003
-0.05048798 0.036304157 0.65600002
-0.047438003 0.0363595 0.65700001
-0.044378523 0.036414843 0.65800005
-0.041246824 0.036414843 0.65800005
-0.038173057 0.036470182 0.65900004
-0.035089772 0.036525525 0.66000003
-0.031948563 0.036525525 0.66000003
-0.028850997 0.036580864 0.66100001
-0.025705025 0.036580864 0.66100001
-0.022593183 0.036636211 0.66200006
-0.019471822 0.03669155 0.66300005
-0.016316334 0.03669155 0.66300005
-0.013180693 0.036746893 0.66400003
-0.010020444 0.036746893 0.66400003
-0.0068705259 0.036802232 0.66500002
-0.0037055174 0.036802232 0.66500002
-0.00054132147 0.036857575 0.66600001
0.0026323933 0.036912918 0.66700006
0.0058156271 0.036968261 0.66800004
0.0090083787 0.0370236 0.66900003
0.01221065 0.037078939 0.67000002
0.01542244 0.037134282 0.671
0.01864375 0.037189625 0.67200005
0.021874577 0.037244968 0.67300004
0.025114924 0.037300307 0.67400002
0.028364789 0.03735565 0.67500001
0.031577393 0.03735565 0.67500001
0.034789991 0.03735565 0.67500001
0 0 0
0 0 0
0 0 0
0 0 0
0 0 0
0 0 0
0 0 0
0.18882097 0.11660497 2.1070001
0.19894341 0.11666031 2.108
0.20867886 0.11649428 2.105
0.21890521 0.11660497 2.1070001
0.22915061 0.11671566 2.1090002
0.23941502 0.11682633 2.1110001
0.24981666 0.11699236 2.1140001
0.25987804 0.11699236 2.1140001
0.26993945 0.11699236 2.1140001
0.28000087 0.11699236 2.1140001
0.29006222 0.11699236 2.1140001
0.30026558 0.1170477 2.115
0.31062523 0.11715839 2.1170001
0.32100388 0.11726908 2.1190002
0.33140156 0.11737975 2.1210001
0.3419793 0.11754578 2.1240001
0.35241982 0.11765647 2.1260002
0.36339095 0.11793317 2.131
0.37300739 0.11776714 2.128
0.38313544 0.11776714 2.128
0.39344826 0.11782249 2.1290002
0.40263322 0.11754578 2.1240001
0.40749553 0.11605155 2.0970001
0.41648054 0.11577484 2.092
0.41706052 0.11322913 2.046
0.42033166 0.11151353 2.0150001
0.4237344 0.10990863 1.9860001
0.42642486 0.10819303 1.955
0.42904314 0.10653278 1.9250001
0.43114817 0.10481719 1.8940001
0.43388775 0.10332296 1.8670001
0.43708178 0.10199476 1.8430001
0.44367614 0.10149669 1.8340001
0.44599131 0.1000578 1.8080001
0.45183051 0.099449039 1.7970001
0.4547469 0.098231524 1.7750001
0.46032432 0.097622767 1.7640001
0.4628742 0.096405253 1.7420001
0.46954229 0.096073195 1.7360001
0.47257519 0.09502171 1.7170001
0.47682723 0.094246924 1.7030001
0.48123071 0.093527481 1.6900001
0.48493144 0.092697352 1.6750001
0.49054933 0.092254624 1.6670001
0.49609098 0.091811888 1.659
0.50216413 0.091479838 1.6530001
0.50848871 0.091203131 1.6480001
0.5153923 0.091037102 1.6450001
0.52194923 0.090815738 1.641
0.52911377 0.090705052 1.6390001
0.53658688 0.090649717 1.6380001
0.5440504 0.090594374 1.6370001
0.55184162 0.090594374 1.6370001
0.55997461 0.090649717 1.6380001
0.56811714 0.090705052 1.6390001
0.57626921 0.090760395 1.6400001
0.58443075 0.090815738 1.641
0.5929628 0.090926424 1.6430001
0.60151386 0.091037102 1.6450001
0.61045432 0.091203131 1.6480001
0.61904818 0.091313817 1.6500001
0.62766111 0.091424495 1.6520001
0.63667774 0.091590524 1.6550001
0.64533347 0.091701202 1.6570001
0.65400827 0.091811888 1.659
0.66310108 0.091977909 1.6620001
0.67181867 0.092088595 1.664
0.68055534 0.092199281 1.6660001
0.68931103 0.092309967 1.6680001
0.69766778 0.092365302 1.669
0.706034 0.092420645 1.6700001
0.71483725 0.092531331 1.6720001
0.72322732 0.092586674 1.6730001
0.73162681 0.092642009 1.674
0.74047774 0.092752703 1.6760001
0.74979424 0.092918724 1.6790001
0.75868797 0.09302941 1.6810001
0.76851285 0.093250774 1.6850001
0.77837592 0.093472145 1.6890001
0.7887426 0.093748853 1.6940001
0.79915684 0.09402556 1.6990001
0.8091436 0.094246924 1.7030001
0.81964833 0.094523631 1.7080001
0.82971597 0.094745003 1.7120001
0.83982176 0.094966367 1.7160001
0.84996551 0.095187731 1.72
0.85964847 0.095353752 1.723
0.86936003 0.095519781 1.7260001
0.87859166 0.095630467 1.728
0.88784236 0.095741153 1.7300001
0.89711207 0.095851831 1.7320001
0.90640086 0.095962517 1.7340001
0.91570854 0.096073195 1.7360001
0.92450315 0.096128546 1.7370001
0.93384427 0.096239224 1.7390001
0.94320434 0.09634991 1.7410001
0.95258355 0.096460588 1.743
0.96198183 0.096571274 1.7450001
0.971955 0.096737295 1.748
0.9819569 0.096903324 1.751
0.99255294 0.097124696 1.7550001
1.0026165 0.097290717 1.7580001
1.013284 0.097512081 1.7620001
1.0234096 0.09767811 1.7650001
1.032979 0.097788788 1.7670001
1.0425676 0.097899474 1.7690001
1.0521753 0.098010153 1.771
1.0624008 0.098176181 1.774
1.0714476 0.098231524 1.7750001
1.0805041 0.098286867 1.7760001
1.090183 0.098397553 1.7780001
1.0998811 0.098508231 1.7800001
1.1089755 0.098563582 1.7810001
1.1180794 0.098618917 1.7820001
1.1271929 0.09867426 1.7830001
1.135679 0.09867426 1.7830001
1.1448066 0.098729596 1.784
1.1539439 0.098784946 1.7850001
1.1624395 0.098784946 1.7850001
1.171591 0.098840289 1.7860001
1.1800914 0.098840289 1.7860001
1.1885917 0.098840289 1.7860001
1.1984324 0.098950967 1.7880001
0 0 0
0 0 0
0 0 0
0 0 0
0 0 0
0 0 0
1.7167355 0.13503376 2.4400001
1.7276402 0.13497841 2.4390001
1.7114373 0.13282008 2.4000001
1.7207065 0.13265407 2.3970001
1.7256112 0.13215598 2.388
1.7275207 0.13143654 2.375
1.7358958 0.13121518 2.3710001
1.742759 0.13088313 2.365
1.7532735 0.13082778 2.3640001
1.7637782 0.13077246 2.3630002
1.7750248 0.13077246 2.3630002
1.7862713 0.13077246 2.3630002
1.7997998 0.13093847 2.3660002
1.8324932 0.13248804 2.3940001
1.8562107 0.13337351 2.4100001
1.8769805 0.13403761 2.4220002
1.9017632 0.13497841 2.4390001
1.915725 0.13514444 2.4420002
1.9557604 0.13713674 2.4780002
2.0056665 0.13979314 2.526
2.0216827 0.14006986 2.5310001
2.0385499 0.14040191 2.5370002
2.0554743 0.14073396 2.5430002
2.0700166 0.14089997 2.546
2.1181176 0.14333501 2.5900002
2.1337347 0.14355639 2.5940001
2.1452534 0.14350104 2.5930002
2.1600907 0.14366707 2.5960002
2.1757934 0.14388843 2.6000001
2.1898513 0.14399911 2.6020002
2.2056205 0.14422049 2.6060002
2.220577 0.14438652 2.6090002
2.2406971 0.14488457 2.618
2.2522967 0.14482924 2.6170001
2.2647521 0.14482924 2.6170001
2.2763374 0.1447739 2.6160002
2.2879128 0.14471856 2.615
2.3073964 0.14516129 2.6230001
2.3216493 0.14527199 2.6250002
2.3359208 0.14538266 2.6270001
2.3546815 0.14577004 2.6340001
2.3726103 0.1461021 2.6400001
2.3924029 0.14654484 2.6480002
2.4095469 0.14682154 2.6530001
2.4249127 0.14698757 2.6560001
2.4393892 0.14709826 2.6580002
2.4529622 0.1471536 2.6590002
2.4656177 0.1471536 2.6590002
2.4754765 0.14698757 2.6560001
2.4899914 0.14709826 2.6580002
2.5017002 0.1470429 2.6570001
2.5152924 0.14709826 2.6580002
2.5307958 0.14726427 2.661
2.5472841 0.14748564 2.6650002
2.5628498 0.14765167 2.6680002
2.6093349 0.14958863 2.7030001
0 0 0
0 0 0
0 0 0
0 0 0
0 0 0
-0 0 0
-0 0 0
-0 0 0
-0 0 0
-0 0 0
-0 0 0
-0 0 0
-0 0 0
-0 0 0
-0 0 0
-0 0 0
-0 0 0
-0 0 0
-0 0 0
-0 0 0
-0 0 0
-0 0 0
-0 0 0
-0 0 0
-0 0 0
-0 0 0
-0 0 0
-0.50657791 0.033115715 0.551
-0.50395548 0.033115715 0.551
-0.50133306 0.033115715 0.551
-0.49961576 0.033175819 0.55200005
-0.49698859 0.033175819 0.55200005
-0.49525696 0.033235919 0.55300003
-0.492625 0.033235919 0.55300003
-0.48999307 0.033235919 0.55300003
-0.48824239 0.033296019 0.55400002
-0.48560566 0.033296019 0.55400002
-0.48296896 0.033296019 0.55400002
-0.48119926 0.033356119 0.55500001
-0.47855777 0.033356119 0.55500001
-0.47677386 0.033416223 0.55600005
-0.47412762 0.033416223 0.55600005
-0.47148138 0.033416223 0.55600005
-0.46967837 0.033476323 0.55700004
-0.4670274 0.033476323 0.55700004
-0.46521008 0.033536423 0.55800003
-0.46255431 0.033536423 0.55800003
-0.45989859 0.033536423 0.55800003
-0.45806223 0.033596523 0.55900002
-0.45540172 0.033596523 0.55900002
-0.45355114 0.033656623 0.56
-0.45169106 0.033716727 0.56100005
-0.44902101 0.033716727 0.56100005
-0.44635099 0.033716727 0.56100005
-0.44447184 0.033776827 0.56200004
-0.44258311 0.033836927 0.56300002
-0.43990359 0.033836927 0.56300002
-0.43800062 0.033897027 0.56400001
-0.43608814 0.033957131 0.565
-0.43339908 0.033957131 0.565
-0.43147236 0.034017235 0.56600004
-0.42877853 0.034017235 0.56600004
-0.4268375 0.034077335 0.56700003
-0.4241389 0.034077335 0.56700003
-0.4221836 0.034137435 0.56800002
-0.41948026 0.034137435 0.56800002
-0.41677693 0.034137435 0.56800002
-0.41480255 0.034197535 0.56900001
-0.41209447 0.034197535 0.56900001
-0.41010585 0.034257639 0.57000005
-0.40739298 0.034257639 0.57000005
-0.40468016 0.034257639 0.57000005
-0.40267247 0.034317739 0.57100004
-0.39995483 0.034317739 0.57100004
-0.39723724 0.034317739 0.57100004
-0.3952105 0.034377839 0.57200003
-0.39248812 0.034377839 0.57200003
-0.38976577 0.034377839 0.57200003
-0.38772002 0.03443794 0.57300001
-0.38499287 0.03443794 0.57300001
-0.38293284 0.03449804 0.574
-0.38086334 0.034558143 0.57500005
-0.37812668 0.034558143 0.57500005
-0.37604287 0.034618244 0.57600003
-0.37330145 0.034618244 0.57600003
-0.37120333 0.034678344 0.57700002
-0.36909574 0.034738444 0.57800001
-0.36634481 0.034738444 0.57800001
-0.36422291 0.034798548 0.57900006
-0.36209154 0.034858648 0.58000004
-0.35933107 0.034858648 0.58000004
-0.35718536 0.034918748 0.58100003
-0.35503018 0.034978848 0.58200002
-0.3522602 0.034978848 0.58200002
-0.35009068 0.035038948 0.583
-0.34791175 0.035099056 0.58400005
-0.34513223 0.035099056 0.58400005
-0.34293896 0.035159156 0.58500004
-0.34015471 0.035159156 0.58500004
-0.33737046 0.035159156 0.58500004
-0.33515811 0.035219256 0.58600003
-0.33236909 0.035219256 0.58600003
-0.3301425 0.035279356 0.58700001
-0.32734874 0.035279356 0.58700001
-0.32455495 0.035279356 0.58700001
-0.32230932 0.035339456 0.588
-0.3200542 0.03539956 0.58900005
-0.31725088 0.03539956 0.58900005
-0.31498149 0.03545966 0.59000003
-0.31217343 0.03545966 0.59000003
-0.3098897 0.03551976 0.59100002
-0.3070769 0.03551976 0.59100002
-0.3047789 0.03557986 0.59200001
-0.30196133 0.03557986 0.59200001
-0.29964909 0.035639964 0.59300005
-0.29732731 0.035700064 0.59400004
-0.29450023 0.035700064 0.59400004
-0.29216415 0.035760164 0.59500003
-0.28981856 0.035820264 0.59600002
-0.28746349 0.035880364 0.597
-0.28509888 0.035940468 0.59800005
-0.28272474 0.036000568 0.59900004
-0.27987385 0.036000568 0.59900004
-0.27748543 0.036060669 0.60000002
-0.27508751 0.036120769 0.60100001
-0.27222708 0.036120769 0.60100001
-0.26981488 0.036180872 0.60200006
-0.26694974 0.036180872 0.60200006
-0.26452324 0.036240976 0.60300004
-0.2616533 0.036240976 0.60300004
-0.2587834 0.036240976 0.60300004
-0.25633788 0.036301076 0.60400003
-0.25346318 0.036301076 0.60400003
-0.25100335 0.036361177 0.60500002
-0.24812393 0.036361177 0.60500002
-0.24564983 0.036421277 0.60600001
-0.24316625 0.03648138 0.60700005
-0.24067314 0.036541481 0.60800004
-0.23777941 0.036541481 0.60800004
-0.23527201 0.036601581 0.60900003
-0.23275509 0.036661681 0.61000001
-0.23022865 0.036721781 0.611
-0.22769271 0.036781885 0.61200005
-0.22477995 0.036781885 0.61200005
-0.2222297 0.036841985 0.61300004
-0.21966997 0.036902085 0.61400002
-0.21710068 0.036962185 0.61500001
-0.21417364 0.036962185 0.61500001
-0.21159013 0.037022289 0.61600006
-0.20899704 0.037082389 0.61700004
-0.20606048 0.037082389 0.61700004
-0.20345314 0.037142489 0.61800003
-0.20083626 0.037202589 0.61900002
-0.19820988 0.037262689 0.62
-0.19525905 0.037262689 0.62
-0.1926184 0.037322797 0.62100005
-0.18996821 0.037382897 0.62200004
-0.18700787 0.037382897 0.62200004
-0.1843434 0.037442997 0.62300003
-0.18137829 0.037442997 0.62300003
-0.17869955 0.037503097 0.62400001
-0.17572968 0.037503097 0.62400001
-0.17303666 0.037563197 0.625
-0.17006204 0.037563197 0.625
-0.16735475 0.037623301 0.62600005
-0.16463794 0.037683401 0.62700003
-0.16191161 0.037743501 0.62800002
-0.15917574 0.037803601 0.62900001
-0.15618208 0.037803601 0.62900001
-0.15343197 0.037863705 0.63000005
-0.15067232 0.037923805 0.63100004
-0.14766912 0.037923805 0.63100004
-0.14466594 0.037923805 0.63100004
-0.14188725 0.037983906 0.63200003
-0.13909905 0.038044006 0.63300002
-0.13630132 0.038104106 0.634
-0.13349409 0.03816421 0.63500005
-0.13067733 0.03822431 0.63600004
-0.12785105 0.03828441 0.63700002
-0.12501524 0.03834451 0.63800001
-0.12197874 0.03834451 0.63800001
-0.11912868 0.038404614 0.63900006
-0.11626908 0.038464718 0.64000005
-0.11322305 0.038464718 0.64000005
-0.11034919 0.038524818 0.64100003
-0.1072984 0.038524818 0.64100003
-0.10441025 0.038584918 0.64200002
-0.10135471 0.038584918 0.64200002
-0.098452277 0.038645018 0.64300001
-0.095391974 0.038645018 0.64300001
-0.092475273 0.038705122 0.64400005
-0.089410216 0.038705122 0.64400005
-0.086479224 0.038765222 0.64500004
-0.083538719 0.038825322 0.64600003
-0.08046414 0.038825322 0.64600003
-0.077509359 0.038885422 0.64700001
-0.074545056 0.038945522 0.648
-0.071571238 0.039005626 0.64900005
-0.068587907 0.039065726 0.65000004
-0.065595046 0.039125826 0.65100002
-0.06259267 0.039185926 0.65200001
-0.059580777 0.03924603 0.65300006
-0.056559362 0.03930613 0.65400004
-0.053528428 0.03936623 0.65500003
-0.05048798 0.03942633 0.65600002
-0.047438003 0.039486431 0.65700001
-0.044311073 0.039486431 0.65700001
-0.041246824 0.039546534 0.65800005
-0.038173057 0.039606638 0.65900004
-0.035089772 0.039666738 0.66000003
-0.031948563 0.039666738 0.66000003
-0.028850997 0.039726838 0.66100001
-0.025705025 0.039726838 0.66100001
-0.022593183 0.039786942 0.66200006
-0.019471822 0.039847042 0.66300005
-0.016316334 0.039847042 0.66300005
-0.013180693 0.039907143 0.66400003
-0.010020444 0.039907143 0.66400003
-0.0068705259 0.039967243 0.66500002
-0.0037055174 0.039967243 0.66500002
-0.00054132147 0.040027343 0.66600001
0.0026323933 0.040087447 0.66700006
0.0058156271 0.040147547 0.66800004
0.0090083787 0.040207647 0.66900003
0.01221065 0.040267747 0.67000002
0.01542244 0.040327847 0.671
0.01864375 0.040387951 0.67200005
0.021874577 0.040448051 0.67300004
0.025114924 0.040508151 0.67400002
0.028322767 0.040508151 0.67400002
0.031577393 0.040568251 0.67500001
0.034789991 0.040568251 0.67500001
0 0 0
0 0 0
0 0 0
0 0 0
0 0 0
0 0 0
0 0 0
0 0 0
0 0 0
0 0 0
0 0 0
0 0 0
0 0 0
0 0 0
0 0 0
0 0 0
0 0 0
0 0 0
0 0 0
0 0 0
0 0 0
0 0 0
0 0 0
0 0 0
0.36287937 0.12789518 2.128
0.37318271 0.12795529 2.1290002
0.3829554 0.12783508 2.1270001
0.39326343 0.12789518 2.128
0.40263322 0.12765478 2.1240001
0.40807849 0.12621234 2.1000001
0.4158833 0.12555122 2.089
0.4172644 0.12302699 2.0470002
0.42054024 0.12116385 2.016
0.4237344 0.11936082 1.9860001
0.42642486 0.11749768 1.955
0.42904314 0.11569465 1.9250001
0.43092054 0.11377142 1.8930001
0.43388775 0.11220878 1.8670001
0.43589601 0.11046585 1.8380001
0.43738627 0.10866282 1.8080001
0.44475791 0.10836232 1.8030001
0.45132762 0.1078815 1.7950001
0.45449069 0.10661938 1.774
0.45928052 0.10577796 1.7600001
0.46260849 0.10463604 1.7410001
0.46954229 0.10433554 1.7360001
0.47202471 0.10307341 1.715
0.47626725 0.102232 1.7010001
0.48265448 0.10187139 1.6950001
0.48406291 0.10048907 1.6720001
0.48966649 0.10000826 1.664
0.49549294 0.099587552 1.6570001
0.50155652 0.099226944 1.651
0.50787157 0.098926432 1.646
0.51476568 0.098746136 1.6430001
0.52163118 0.098565832 1.6400001
0.52846813 0.098385528 1.6370001
0.53593165 0.098325424 1.636
0.54371804 0.098325424 1.636
0.55150449 0.098325424 1.636
0.55929089 0.098325424 1.636
0.56777054 0.098445632 1.6380001
0.57591784 0.098505728 1.6390001
0.58407468 0.098565832 1.6400001
0.59260184 0.098686032 1.6420001
0.60114819 0.098806232 1.6440001
0.61008388 0.098986536 1.6470001
0.61867297 0.099106744 1.649
0.62728113 0.099226944 1.651
0.63667774 0.099467352 1.6550001
0.64533347 0.099587552 1.6570001
0.65440249 0.099767856 1.6600001
0.66310108 0.099888057 1.6620001
0.67181867 0.10000826 1.664
0.68055534 0.10012846 1.6660001
0.68889773 0.10018856 1.6670001
0.69766778 0.10030876 1.669
0.70561117 0.10030876 1.669
0.71398216 0.10036886 1.6700001
0.72279501 0.10048907 1.6720001
0.73118979 0.10054917 1.6730001
0.74003589 0.10066937 1.6750001
0.74890107 0.10078957 1.677
0.75823659 0.10096987 1.6800001
0.76760066 0.10115018 1.6830001
0.77837592 0.10151079 1.6890001
0.7887426 0.1018113 1.6940001
0.79915684 0.1021118 1.6990001
0.80961877 0.10241231 1.7040001
0.8201282 0.10271281 1.7090001
0.83020061 0.10295321 1.7130001
0.84031117 0.10319362 1.7170001
0.85045969 0.10343402 1.7210001
0.85964847 0.10355423 1.723
0.86885631 0.10367443 1.725
0.87859166 0.10385473 1.728
0.88784236 0.10397494 1.7300001
0.89659405 0.10403503 1.7310001
0.90587807 0.10415523 1.733
0.9151811 0.10427544 1.7350001
0.92397088 0.10433554 1.7360001
0.93330729 0.10445574 1.738
0.9426626 0.10457595 1.7400001
0.95203704 0.10469615 1.7420001
0.96143055 0.10481635 1.7440001
0.971955 0.10505675 1.748
0.98139614 0.10517696 1.7500001
0.99198735 0.10541736 1.7540001
1.0031868 0.10571786 1.7590001
1.013859 0.10595828 1.7630001
1.0239893 0.10613857 1.766
1.0335636 0.10625878 1.7680001
1.043157 0.10637898 1.7700001
1.0527694 0.10649918 1.7720001
1.0629997 0.10667948 1.7750001
1.0714476 0.10667948 1.7750001
1.0811124 0.10679968 1.7770001
1.090183 0.10685979 1.7780001
1.0998811 0.10697999 1.7800001
1.1083529 0.10697999 1.7800001
1.117452 0.10704009 1.7810001
1.1265607 0.10710019 1.7820001
1.135042 0.10710019 1.7820001
1.1441649 0.10716029 1.7830001
1.1532974 0.10722039 1.784
1.1617882 0.10722039 1.784
1.170935 0.10728049 1.7850001
1.1800914 0.1073406 1.7860001
1.1885917 0.1073406 1.7860001
1.1984324 0.1074608 1.7880001
0 0 0
0 0 0
0 0 0
0 0 0
0 0 0
0 0 0
0 0 0
1.6985981 0.14412247 2.398
1.7100111 0.14412247 2.398
1.7156814 0.14364167 2.3900001
1.7169399 0.14280026 2.3760002
1.7275207 0.14274015 2.375
1.7358958 0.14249974 2.3710001
1.742759 0.14213914 2.365
1.7517903 0.14195885 2.3620002
1.7630318 0.14195885 2.3620002
1.7735224 0.14189874 2.3610001
1.7862713 0.14201894 2.3630002
1.799039 0.14213914 2.365
1.8217769 0.14304066 2.3800001
1.8562107 0.1448437 2.4100001
1.8769805 0.14556491 2.4220002
1.9009836 0.14652653 2.4380002
1.9149405 0.14670683 2.4410002
1.964442 0.14959168 2.4890001
1.9691421 0.14905076 2.48
1.9937258 0.15001239 2.4960001
2.0072124 0.1501326 2.4980001
2.0562825 0.15289724 2.5440001
2.0708299 0.15307754 2.5470002
2.0894942 0.15355834 2.5550001
2.1074126 0.15397906 2.562
2.1220882 0.15415937 2.5650001
2.1376243 0.15439977 2.569
2.1674252 0.1556619 2.5900002
2.1873264 0.15620281 2.5990002
2.2022352 0.15638311 2.6020002
2.2171724 0.1565634 2.605
2.2295706 0.1565634 2.605
2.2359445 0.1561427 2.598
2.2535019 0.1565033 2.6040001
2.2658954 0.1565033 2.6040001
2.2782888 0.1565033 2.6040001
2.2880433 0.156323 2.6010001
2.3128047 0.15716441 2.615
2.331475 0.15758513 2.6220002
2.3376963 0.15716441 2.615
2.3600283 0.15782553 2.6260002
2.3779473 0.15818614 2.6320002
2.4013729 0.15890735 2.6440001
2.4203477 0.15932806 2.651
2.4375536 0.15962857 2.6560001
2.4538846 0.15986897 2.6600001
2.4674721 0.15992907 2.661
2.4726806 0.15944827 2.6530001
2.4918647 0.15986897 2.6600001
2.5017002 0.15968867 2.6570001
2.5133996 0.15962857 2.6560001
2.5260406 0.15962857 2.6560001
0 0 0
0 0 0
0 0 0
0 0 0
0 0 0
0 0 0
0 0 0
0 0 0
-0 0 0
-0 0 0
-0 0 0
-0 0 0
-0 0 0
-0 0 0
-0 0 0
-0 0 0
-0 0 0
-0 0 0
-0 0 0
-0 0 0
-0 0 0
-0 0 0
-0 0 0
-0 0 0
-0 0 0
-0 0 0
-0 0 0
-0 0 0
-0 0 0
-0.50827622 0.035673287 0.55000001
-0.50657791 0.035738148 0.551
-0.50395548 0.035738148 0.551
-0.50133306 0.035738148 0.551
-0.49961576 0.035803013 0.55200005
-0.49698859 0.035803013 0.55200005
-0.49525696 0.03586787 0.55300003
-0.492625 0.03586787 0.55300003
-0.48999307 0.03586787 0.55300003
-0.48824239 0.035932731 0.55400002
-0.48560566 0.035932731 0.55400002
-0.48296896 0.035932731 0.55400002
-0.48119926 0.035997592 0.55500001
-0.47855777 0.035997592 0.55500001
-0.47677386 0.036062453 0.55600005
-0.47412762 0.036062453 0.55600005
-0.47148138 0.036062453 0.55600005
-0.46967837 0.036127314 0.55700004
-0.4670274 0.036127314 0.55700004
-0.46437639 0.036127314 0.55700004
-0.46255431 0.036192175 0.55800003
-0.45989859 0.036192175 0.55800003
-0.45806223 0.036257032 0.55900002
-0.45540172 0.036257032 0.55900002
-0.45355114 0.036321893 0.56
-0.45169106 0.036386758 0.56100005
-0.44902101 0.036386758 0.56100005
-0.44635099 0.036386758 0.56100005
-0.44447184 0.036451615 0.56200004
-0.44258311 0.036516476 0.56300002
-0.43990359 0.036516476 0.56300002
-0.43800062 0.036581334 0.56400001
-0.43608814 0.036646195 0.565
-0.43339908 0.036646195 0.565
-0.43147236 0.03671106 0.56600004
-0.42877853 0.03671106 0.56600004
-0.4268375 0.036775917 0.56700003
-0.4241389 0.036775917 0.56700003
-0.4221836 0.036840778 0.56800002
-0.41948026 0.036840778 0.56800002
-0.41677693 0.036840778 0.56800002
-0.41480255 0.036905639 0.56900001
-0.41209447 0.036905639 0.56900001
-0.41010585 0.0369705 0.57000005
-0.40739298 0.0369705 0.57000005
-0.40468016 0.0369705 0.57000005
-0.40267247 0.037035361 0.57100004
-0.39995483 0.037035361 0.57100004
-0.39723724 0.037035361 0.57100004
-0.3952105 0.037100222 0.57200003
-0.39248812 0.037100222 0.57200003
-0.38976577 0.037100222 0.57200003
-0.38772002 0.037165079 0.57300001
-0.38499287 0.037165079 0.57300001
-0.38293284 0.03722994 0.574
-0.38086334 0.037294805 0.57500005
-0.37812668 0.037294805 0.57500005
-0.37604287 0.037359662 0.57600003
-0.37330145 0.037359662 0.57600003
-0.37120333 0.037424523 0.57700002
-0.36909574 0.037489384 0.57800001
-0.36634481 0.037489384 0.57800001
-0.36422291 0.037554245 0.57900006
-0.36209154 0.037619106 0.58000004
-0.35933107 0.037619106 0.58000004
-0.35718536 0.037683968 0.58100003
-0.35503018 0.037748825 0.58200002
-0.3522602 0.037748825 0.58200002
-0.35009068 0.037813686 0.583
-0.34791175 0.037878547 0.58400005
-0.34513223 0.037878547 0.58400005
-0.34293896 0.037943408 0.58500004
-0.34015471 0.037943408 0.58500004
-0.33737046 0.037943408 0.58500004
-0.33515811 0.038008269 0.58600003
-0.33236909 0.038008269 0.58600003
-0.3301425 0.038073126 0.58700001
-0.32734874 0.038073126 0.58700001
-0.32455495 0.038073126 0.58700001
-0.32230932 0.038137987 0.588
-0.3200542 0.038202852 0.58900005
-0.31725088 0.038202852 0.58900005
-0.31498149 0.038267709 0.59000003
-0.31217343 0.038267709 0.59000003
-0.3098897 0.03833257 0.59100002
-0.30759647 0.038397431 0.59200001
-0.3047789 0.038397431 0.59200001
-0.30196133 0.038397431 0.59200001
-0.29964909 0.038462292 0.59300005
-0.29732731 0.038527153 0.59400004
-0.29450023 0.038527153 0.59400004
-0.29216415 0.038592014 0.59500003
-0.28981856 0.038656872 0.59600002
-0.28746349 0.038721733 0.597
-0.28509888 0.038786598 0.59800005
-0.28272474 0.038851455 0.59900004
-0.27987385 0.038851455 0.59900004
-0.27748543 0.038916316 0.60000002
-0.27508751 0.038981173 0.60100001
-0.27222708 0.038981173 0.60100001
-0.26981488 0.039046038 0.60200006
-0.26694974 0.039046038 0.60200006
-0.26452324 0.039110899 0.60300004
-0.2616533 0.039110899 0.60300004
-0.2587834 0.039110899 0.60300004
-0.25633788 0.039175756 0.60400003
-0.25346318 0.039175756 0.60400003
-0.25100335 0.039240617 0.60500002
-0.24812393 0.039240617 0.60500002
-0.24564983 0.039305478 0.60600001
-0.24316625 0.039370339 0.60700005
-0.24067314 0.0394352 0.60800004
-0.23777941 0.0394352 0.60800004
-0.23527201 0.039500061 0.60900003
-0.23275509 0.039564919 0.61000001
-0.23022865 0.03962978 0.611
-0.22769271 0.039694645 0.61200005
-0.22477995 0.039694645 0.61200005
-0.2222297 0.039759502 0.61300004
-0.21966997 0.039824363 0.61400002
-0.21710068 0.039889224 0.61500001
-0.21417364 0.039889224 0.61500001
-0.21159013 0.039954085 0.61600006
-0.20899704 0.040018946 0.61700004
-0.20606048 0.040018946 0.61700004
-0.20345314 0.040083803 0.61800003
-0.20083626 0.040148664 0.61900002
-0.19820988 0.040213525 0.62
-0.19525905 0.040213525 0.62
-0.1926184 0.040278386 0.62100005
-0.18996821 0.040343247 0.62200004
-0.18700787 0.040343247 0.62200004
-0.1843434 0.040408108 0.62300003
-0.18137829 0.040408108 0.62300003
-0.17869955 0.040472966 0.62400001
-0.17572968 0.040472966 0.62400001
-0.17303666 0.040537827 0.625
-0.17006204 0.040537827 0.625
-0.16735475 0.040602691 0.62600005
-0.16463794 0.040667549 0.62700003
-0.16191161 0.04073241 0.62800002
-0.15917574 0.040797271 0.62900001
-0.15618208 0.040797271 0.62900001
-0.15343197 0.040862132 0.63000005
-0.15067232 0.040926993 0.63100004
-0.14766912 0.040926993 0.63100004
-0.14466594 0.040926993 0.63100004
-0.14188725 0.040991854 0.63200003
-0.13909905 0.041056711 0.63300002
-0.13630132 0.041121572 0.634
-0.13349409 0.041186437 0.63500005
-0.13067733 0.041251294 0.63600004
-0.12785105 0.041316155 0.63700002
-0.12501524 0.041381013 0.63800001
-0.12197874 0.041381013 0.63800001
-0.11912868 0.041445877 0.63900006
-0.11626908 0.041510738 0.64000005
-0.11322305 0.041510738 0.64000005
-0.11034919 0.041575596 0.64100003
-0.1072984 0.041575596 0.64100003
-0.10441025 0.041640457 0.64200002
-0.10135471 0.041640457 0.64200002
-0.098452277 0.041705318 0.64300001
-0.095391974 0.041705318 0.64300001
-0.092475273 0.041770179 0.64400005
-0.089410216 0.041770179 0.64400005
-0.086479224 0.04183504 0.64500004
-0.083538719 0.041899901 0.64600003
-0.08046414 0.041899901 0.64600003
-0.077509359 0.041964758 0.64700001
-0.074545056 0.042029619 0.648
-0.071571238 0.042094484 0.64900005
-0.068587907 0.042159341 0.65000004
-0.065595046 0.042224202 0.65100002
-0.06259267 0.042289063 0.65200001
-0.059580777 0.042353924 0.65300006
-0.056559362 0.042418785 0.65400004
-0.053528428 0.042483643 0.65500003
-0.05048798 0.042548504 0.65600002
-0.047438003 0.042613365 0.65700001
-0.044311073 0.042613365 0.65700001
-0.041246824 0.042678226 0.65800005
-0.038173057 0.042743087 0.65900004
-0.035036605 0.042743087 0.65900004
-0.031948563 0.042807948 0.66000003
-0.028850997 0.042872805 0.66100001
-0.025705025 0.042872805 0.66100001
-0.022593183 0.04293767 0.66200006
-0.019471822 0.043002531 0.66300005
-0.016316334 0.043002531 0.66300005
-0.013180693 0.043067388 0.66400003
-0.010020444 0.043067388 0.66400003
-0.0068705259 0.043132249 0.66500002
-0.0037055174 0.043132249 0.66500002
-0.00054132147 0.04319711 0.66600001
0.0026323933 0.043261971 0.66700006
0.0058156271 0.043326832 0.66800004
0.0090083787 0.043391693 0.66900003
0.01221065 0.043456551 0.67000002
0.01542244 0.043521412 0.671
0.01864375 0.043586273 0.67200005
0.021874577 0.043651134 0.67300004
0.025114924 0.043715995 0.67400002
0.028322767 0.043715995 0.67400002
0.031577393 0.043780852 0.67500001
0.034789991 0.043780852 0.67500001
0 0 0
0 0 0
0 0 0
0 0 0
0 0 0
0 0 0
0 0 0
0 0 0
0 0 0
0 0 0
0 0 0
0 0 0
0 0 0
0 0 0
0 0 0
0 0 0
0 0 0
0 0 0
0 0 0
0 0 0
0 0 0
0 0 0
0 0 0
0 0 0
0 0 0
0 0 0
0 0 0
0 0 0
0 0 0
0 0 0
0 0 0
0 0 0
0 0 0
0 0 0
0 0 0
0.421911 0.12278098 1.8930001
0.42363608 0.12070543 1.8610001
0.426451 0.11901906 1.835
0.43565887 0.11914879 1.8370001
0.43666053 0.11707325 1.8050001
0.44475791 0.11694353 1.8030001
0.44780755 0.1155166 1.7810001
0.45192873 0.11441397 1.7640001
0.45614904 0.11337619 1.748
0.46260849 0.11292218 1.7410001
0.46873087 0.11240329 1.733
0.47174948 0.11117094 1.7140001
0.47710723 0.11052234 1.7040001
0.48094597 0.10954943 1.6890001
0.48348388 0.10831708 1.6700001
0.48878372 0.10773334 1.6610001
0.49459583 0.10727931 1.654
0.50064516 0.10689015 1.6480001
0.50725448 0.10663071 1.6440001
0.51382571 0.10637126 1.6400001
0.52099502 0.10624155 1.6380001
0.52782249 0.10604696 1.6350001
0.53527653 0.1059821 1.6340001
0.54272103 0.10591725 1.6330001
0.55049318 0.10591725 1.6330001
0.55860716 0.1059821 1.6340001
0.56707722 0.10611182 1.636
0.5752151 0.10617668 1.6370001
0.5833624 0.10624155 1.6380001
0.59188008 0.10637126 1.6400001
0.60078251 0.10656585 1.6430001
0.60971344 0.10676042 1.646
0.61829782 0.10689015 1.6480001
0.62690121 0.10701987 1.6500001
0.63590837 0.10721445 1.6530001
0.64494401 0.10740904 1.6560001
0.65400827 0.10760361 1.659
0.66310108 0.1077982 1.6620001
0.67222238 0.10799278 1.6650001
0.68055534 0.10805764 1.6660001
0.68889773 0.1081225 1.6670001
0.69724977 0.10818736 1.6680001
0.70518845 0.10818736 1.6680001
0.71355462 0.10825221 1.669
0.72193044 0.10831708 1.6700001
0.73031569 0.10838194 1.6710001
0.73959404 0.10857651 1.674
0.74845451 0.10870624 1.6760001
0.75778532 0.10890083 1.6790001
0.76714456 0.1090954 1.682
0.77791506 0.10948457 1.6880001
0.7887426 0.10987373 1.6940001
0.79915684 0.11019804 1.6990001
0.80961877 0.11052234 1.7040001
0.8201282 0.11084664 1.7090001
0.83020061 0.11110608 1.7130001
0.83982176 0.11130066 1.7160001
0.84996551 0.1115601 1.72
0.85914958 0.11168983 1.7220001
0.86835265 0.11181955 1.7240001
0.87808329 0.11201413 1.7270001
0.88681591 0.11207899 1.728
0.89607614 0.11220872 1.7300001
0.90535539 0.11233843 1.7320001
0.9146536 0.11246815 1.7340001
0.92397088 0.11259787 1.7360001
0.93277031 0.11266273 1.7370001
0.94212085 0.11279245 1.7390001
0.95149052 0.11292218 1.7410001
0.96087921 0.11305189 1.743
0.97084296 0.11324648 1.7460001
0.98083532 0.11344106 1.7490001
0.99142182 0.11370051 1.7530001
1.0031868 0.11408966 1.7590001
1.013284 0.11428425 1.7620001
1.0234096 0.11447883 1.7650001
1.0335636 0.11467341 1.7680001
1.043157 0.11480314 1.7700001
1.0527694 0.11493285 1.7720001
1.0624008 0.11506257 1.774
1.0714476 0.11512744 1.7750001
1.0798956 0.11512744 1.7750001
1.0889567 0.11519229 1.7760001
1.0986452 0.11532202 1.7780001
1.1077302 0.11538687 1.779
1.1168245 0.11545174 1.7800001
1.1252964 0.11545174 1.7800001
1.1344051 0.1155166 1.7810001
1.1428815 0.1155166 1.7810001
1.1520045 0.11558145 1.7820001
1.1604859 0.11558145 1.7820001
1.1702789 0.11571117 1.784
1.1787698 0.11571117 1.784
1.1879262 0.11577604 1.7850001
1.1977621 0.11590576 1.7870001
0 0 0
0 0 0
0 0 0
0 0 0
0 0 0
0 0 0
0 0 0
0 0 0
0 0 0
0 0 0
0 0 0
0 0 0
0 0 0
0 0 0
0 0 0
0 0 0
0 0 0
0 0 0
0 0 0
0 0 0
0 0 0
0 0 0
0 0 0
0 0 0
0 0 0
0 0 0
0 0 0
0 0 0
0 0 0
0 0 0
0 0 0
0 0 0
0 0 0
0 0 0
0 0 0
0 0 0
0 0 0
0 0 0
0 0 0
0 0 0
0 0 0
0 0 0
0 0 0
0 0 0
0 0 0
0 0 0
0 0 0
0 0 0
0 0 0
0 0 0
0 0 0
0 0 0
0 0 0
0 0 0
0 0 0
0 0 0
0 0 0
0 0 0
0 0 0
0 0 0
0 0 0
0 0 0
0 0 0
0 0 0
0 0 0
0 0 0
0 0 0
-0 0 0
-0 0 0
-0 0 0
-0 0 0
-0 0 0
-0 0 0
-0 0 0
-0 0 0
-0 0 0
-0 0 0
-0 0 0
-0 0 0
-0 0 0
-0 0 0
-0 0 0
-0 0 0
-0 0 0
-0 0 0
-0 0 0
-0 0 0
-0 0 0
-0 0 0
-0.50657791 0.038360585 0.551
-0.50395548 0.038360585 0.551
-0.50133306 0.038360585 0.551
-0.49961576 0.03843021 0.55200005
-0.49698859 0.03843021 0.55200005
-0.49436137 0.03843021 0.55200005
-0.492625 0.038499828 0.55300003
-0.48999307 0.038499828 0.55300003
-0.48824239 0.038569447 0.55400002
-0.48560566 0.038569447 0.55400002
-0.48296896 0.038569447 0.55400002
-0.48119926 0.038639065 0.55500001
-0.47855777 0.038639065 0.55500001
-0.47677386 0.038708691 0.55600005
-0.47412762 0.038708691 0.55600005
-0.47148138 0.038708691 0.55600005
-0.46967837 0.038778309 0.55700004
-0.4670274 0.038778309 0.55700004
-0.46437639 0.038778309 0.55700004
-0.46255431 0.038847927 0.55800003
-0.45989859 0.038847927 0.55800003
-0.45806223 0.038917545 0.55900002
-0.45540172 0.038917545 0.55900002
-0.45355114 0.038987167 0.56
-0.45169106 0.039056789 0.56100005
-0.44902101 0.039056789 0.56100005
-0.44635099 0.039056789 0.56100005
-0.44447184 0.039126407 0.56200004
-0.44179702 0.039126407 0.56200004
-0.43990359 0.039196026 0.56300002
-0.43800062 0.039265648 0.56400001
-0.43608814 0.039335266 0.565
-0.43339908 0.039335266 0.565
-0.43147236 0.039404888 0.56600004
-0.42877853 0.039404888 0.56600004
-0.4268375 0.039474506 0.56700003
-0.4241389 0.039474506 0.56700003
-0.4221836 0.039544128 0.56800002
-0.41948026 0.039544128 0.56800002
-0.41677693 0.039544128 0.56800002
-0.41480255 0.039613746 0.56900001
-0.41209447 0.039613746 0.56900001
-0.41010585 0.039683368 0.57000005
-0.40739298 0.039683368 0.57000005
-0.40468016 0.039683368 0.57000005
-0.40267247 0.039752986 0.57100004
-0.39995483 0.039752986 0.57100004
-0.39723724 0.039752986 0.57100004
-0.3952105 0.039822608 0.57200003
-0.39248812 0.039822608 0.57200003
-0.38976577 0.039822608 0.57200003
-0.38772002 0.039892226 0.57300001
-0.38499287 0.039892226 0.57300001
-0.38293284 0.039961845 0.574
-0.38086334 0.040031467 0.57500005
-0.37812668 0.040031467 0.57500005
-0.37604287 0.040101089 0.57600003
-0.37330145 0.040101089 0.57600003
-0.37120333 0.040170707 0.57700002
-0.36909574 0.040240325 0.57800001
-0.36634481 0.040240325 0.57800001
-0.36422291 0.040309947 0.57900006
-0.36209154 0.040379569 0.58000004
-0.35933107 0.040379569 0.58000004
-0.35718536 0.040449187 0.58100003
-0.35503018 0.040518805 0.58200002
-0.3522602 0.040518805 0.58200002
-0.35009068 0.040588424 0.583
-0.34791175 0.040658049 0.58400005
-0.34513223 0.040658049 0.58400005
-0.34293896 0.040727668 0.58500004
-0.34015471 0.040727668 0.58500004
-0.33737046 0.040727668 0.58500004
-0.33515811 0.040797286 0.58600003
-0.33236909 0.040797286 0.58600003
-0.3295801 0.040797286 0.58600003
-0.32734874 0.040866904 0.58700001
-0.32455495 0.040866904 0.58700001
-0.32230932 0.040936522 0.588
-0.3200542 0.041006148 0.58900005
-0.31725088 0.041006148 0.58900005
-0.31498149 0.041075766 0.59000003
-0.31270251 0.041145384 0.59100002
-0.3098897 0.041145384 0.59100002
-0.30759647 0.041215003 0.59200001
-0.3047789 0.041215003 0.59200001
-0.30196133 0.041215003 0.59200001
-0.29964909 0.041284628 0.59300005
-0.29732731 0.041354246 0.59400004
-0.29450023 0.041354246 0.59400004
-0.29216415 0.041423865 0.59500003
-0.28981856 0.041493483 0.59600002
-0.28746349 0.041563105 0.597
-0.28509888 0.041632727 0.59800005
-0.28272474 0.041702345 0.59900004
-0.27987385 0.041702345 0.59900004
-0.27748543 0.041771963 0.60000002
-0.27508751 0.041841585 0.60100001
-0.27222708 0.041841585 0.60100001
-0.26981488 0.041911207 0.60200006
-0.26694974 0.041911207 0.60200006
-0.26452324 0.041980825 0.60300004
-0.2616533 0.041980825 0.60300004
-0.2587834 0.041980825 0.60300004
-0.25633788 0.042050444 0.60400003
-0.25346318 0.042050444 0.60400003
-0.25100335 0.042120066 0.60500002
-0.24812393 0.042120066 0.60500002
-0.24564983 0.042189684 0.60600001
-0.24316625 0.042259306 0.60700005
-0.24067314 0.042328924 0.60800004
-0.23777941 0.042328924 0.60800004
-0.23527201 0.042398546 0.60900003
-0.23275509 0.042468164 0.61000001
-0.23022865 0.042537782 0.611
-0.22769271 0.042607404 0.61200005
-0.22477995 0.042607404 0.61200005
-0.2222297 0.042677026 0.61300004
-0.21966997 0.042746644 0.61400002
-0.21710068 0.042816263 0.61500001
-0.21417364 0.042816263 0.61500001
-0.21159013 0.042885885 0.61600006
-0.20865831 0.042885885 0.61600006
-0.20606048 0.042955507 0.61700004
-0.20345314 0.043025125 0.61800003
-0.20083626 0.043094743 0.61900002
-0.19820988 0.043164361 0.62
-0.19525905 0.043164361 0.62
-0.1926184 0.043233987 0.62100005
-0.18996821 0.043303605 0.62200004
-0.18700787 0.043303605 0.62200004
-0.1843434 0.043373223 0.62300003
-0.18137829 0.043373223 0.62300003
-0.17869955 0.043442842 0.62400001
-0.17572968 0.043442842 0.62400001
-0.17303666 0.043512464 0.625
-0.17006204 0.043512464 0.625
-0.16735475 0.043582086 0.62600005
-0.16463794 0.043651704 0.62700003
-0.16191161 0.043721322 0.62800002
-0.15917574 0.04379094 0.62900001
-0.15618208 0.04379094 0.62900001
-0.15343197 0.043860566 0.63000005
-0.15067232 0.043930184 0.63100004
-0.14766912 0.043930184 0.63100004
-0.14466594 0.043930184 0.63100004
-0.14188725 0.043999802 0.63200003
-0.13909905 0.044069421 0.63300002
-0.13630132 0.044139042 0.634
-0.13349409 0.044208664 0.63500005
-0.13067733 0.044278283 0.63600004
-0.12765035 0.044278283 0.63600004
-0.1248193 0.044347901 0.63700002
-0.12197874 0.044417523 0.63800001
-0.11912868 0.044487145 0.63900006
-0.11626908 0.044556763 0.64000005
-0.11322305 0.044556763 0.64000005
-0.11034919 0.044626381 0.64100003
-0.1072984 0.044626381 0.64100003
-0.10441025 0.044696003 0.64200002
-0.10135471 0.044696003 0.64200002
-0.098452277 0.044765621 0.64300001
-0.095391974 0.044765621 0.64300001
-0.092475273 0.044835243 0.64400005
-0.089410216 0.044835243 0.64400005
-0.086479224 0.044904862 0.64500004
-0.083538719 0.044974484 0.64600003
-0.08046414 0.044974484 0.64600003
-0.077509359 0.045044102 0.64700001
-0.074545056 0.04511372 0.648
-0.071571238 0.045183342 0.64900005
-0.068587907 0.045252964 0.65000004
-0.065595046 0.045322582 0.65100002
-0.06259267 0.0453922 0.65200001
-0.059580777 0.045461822 0.65300006
-0.056559362 0.045531444 0.65400004
-0.053528428 0.045601062 0.65500003
-0.05048798 0.045670681 0.65600002
-0.047438003 0.045740299 0.65700001
-0.044311073 0.045740299 0.65700001
-0.041246824 0.045809925 0.65800005
-0.038173057 0.045879543 0.65900004
-0.035036605 0.045879543 0.65900004
-0.031948563 0.045949161 0.66000003
-0.028850997 0.046018779 0.66100001
-0.025705025 0.046018779 0.66100001
-0.022593183 0.046088405 0.66200006
-0.019442454 0.046088405 0.66200006
-0.016316334 0.046158023 0.66300005
-0.013180693 0.046227641 0.66400003
-0.010020444 0.046227641 0.66400003
-0.0068705259 0.04629726 0.66500002
-0.0037055174 0.04629726 0.66500002
-0.00054132147 0.046366882 0.66600001
0.0026323933 0.046436504 0.66700006
0.0058156271 0.046506122 0.66800004
0.0090083787 0.04657574 0.66900003
0.01221065 0.046645362 0.67000002
0.01542244 0.04671498 0.671
0.01864375 0.046784602 0.67200005
0.021874577 0.04685422 0.67300004
0.025114924 0.046923842 0.67400002
0.028322767 0.046923842 0.67400002
0.031577393 0.046993461 0.67500001
0.034789991 0.046993461 0.67500001
0 0 0
0 0 0
0 0 0
0 0 0
0 0 0
0 0 0
0 0 0
0 0 0
0 0 0
0 0 0
0 0 0
0 0 0
0 0 0
0 0 0
0 0 0
0 0 0
0 0 0
0 0 0
0 0 0
0 0 0
0 0 0
0 0 0
0 0 0
0 0 0
0 0 0
0 0 0
0 0 0
0 0 0
0 0 0
0 0 0
0 0 0
0 0 0
0 0 0
0 0 0
0 0 0
0 0 0
0 0 0
0 0 0
0 0 0
0.42988685 0.12371463 1.7770001
0.43735763 0.12343616 1.7730001
0.44504175 0.1232273 1.7700001
0.45346594 0.1232273 1.7700001
